# .PCD v0.7 - Point Cloud Data file format
VERSION 0.7
FIELDS x y z
SIZE 4 4 4
TYPE F F F
COUNT 1 1 1
WIDTH 1499
HEIGHT 1
VIEWPOINT 0 0 0 1 0 0 0
POINTS 1499
DATA ascii
-24.626509 -106.00923 0.32796794
-27.33061 -105.76199 0.32730031
-26.922642 -105.62128 0.13620633
-24.226898 -105.98127 0.32815644
-35.656342 -105.18736 0.32433152
-30.353436 -105.15482 0.32693118
-28.330696 -105.05963 0.32795221
-27.77433 -105.19952 0.32797185
-27.260677 -105.40239 0.13662082
-23.708538 -105.44054 0.3291696
-29.838232 -104.76458 0.327748
-29.420908 -104.60961 0.1372343
-27.869698 -104.73 0.13824573
-27.496977 -104.81081 0.13831204
-28.55937 -104.4609 0.32876116
-35.475563 -103.49233 0.32693905
-27.843014 -103.2123 0.14312041
-28.677046 -102.75833 0.23752335
-28.309034 -102.83482 0.23764944
-39.882648 -102.01718 0.13410056
-34.678585 -102.29246 0.13927367
-40.162884 -101.74921 0.32690758
-34.936172 -101.87949 0.1402851
-30.071062 -101.58502 0.33242896
-30.208069 -101.35459 0.23975998
-29.677443 -101.48425 0.14693394
-21.770844 -101.13397 0.33644235
6.7979727 -101.34344 0.16182339
-25.174328 -100.5024 0.33615178
-24.836229 -100.55283 0.15421283
3.9290464 -100.67095 0.16445971
-24.066284 -100.47354 0.15509161
-22.742125 -100.39487 0.1563766
-22.15983 -100.33814 0.24723175
-21.80061 -100.3326 0.15728024
-21.426788 -100.31396 0.15761185
-20.645504 -100.22423 0.33821738
-20.307789 -100.24978 0.15860674
6.0557499 -100.28706 0.34153181
6.6023836 -97.503784 0.34585148
-89.324341 -94.544724 0.065290838
-89.503769 -94.111877 0.29438412
-4.8737974 -87.451965 0.053987533
-4.4268627 -87.175606 0.20879623
-3.0072696 -87.046227 0.056568891
-2.8861361 -87.037193 0.20952576
-20.604078 -86.614891 0.35906178
-20.160955 -86.736633 0.15024194
-3.4721353 -86.934479 0.36252543
-6.149519 -85.943626 0.36379778
-5.3004017 -84.677269 0.21696755
-17.046906 -84.252777 0.061554372
-5.7126741 -84.26339 0.36648381
-5.4423714 -84.349182 0.21791556
-3.3550875 -84.241577 0.21871144
-4.012372 -83.353256 0.074967206
-3.6662457 -83.451073 0.14795673
-16.33383 -82.254059 0.21968848
-14.108414 -82.291161 0.22101608
-13.843973 -82.481194 0.22055185
-16.030304 -81.534683 0.36843944
-15.84544 -81.699821 0.14861599
-14.320926 -81.883583 0.29533428
-16.763901 -81.451813 0.22201061
-15.630909 -81.040024 0.36932695
-15.37995 -81.161858 0.22390112
-14.705736 -81.258217 0.22435793
-14.469864 -81.043983 0.22486278
-12.112924 -81.11203 0.37020659
-14.777534 -80.674454 0.3219777
-15.23237 -80.189278 0.22691092
-14.909318 -80.276619 0.22708461
-6.6962833 -79.126778 0.095238239
-13.486569 -78.994583 0.37312043
-12.721858 -78.691628 0.23348323
-12.341109 -78.532562 0.16435319
-7.1628609 -78.837021 0.23574227
-6.9770536 -78.929047 0.30500907
-12.524879 -78.39286 0.37431422
-12.153283 -78.318359 0.23489186
-11.807912 -78.210564 0.23564848
-11.194595 -78.278641 0.32843366
-10.741459 -78.150612 0.20856422
-8.814126 -78.059715 0.099426568
-8.1998987 -78.119286 0.23759234
-11.888665 -77.9673 0.37513888
-11.345319 -77.958115 0.23671791
-10.338766 -77.983139 0.098781258
-9.7363901 -77.829788 0.27228808
-9.2379904 -77.9533 0.30673519
-7.7594042 -77.908089 0.23829743
-10.131149 -77.301201 0.2394703
-9.815299 -77.022644 0.24053147
-10.190558 -76.891281 0.37721625
-9.9126673 -76.942917 0.1042982
-3.876806 -70.531548 0.38820788
-19.09911 -70.060524 0.00079515576
-4.7138634 -70.192299 0.14109278
-4.1193218 -70.439293 0.38832569
-3.6949461 -70.374458 0.22305405
-3.4880373 -70.421211 0.14046219
-5.7008753 -69.585083 0.18464667
-5.420125 -69.760376 0.14304349
-3.0839188 -69.740143 0.38952738
-2.7627513 -69.559921 0.26743823
-6.7467842 -69.119247 0.1944862
-2.3136237 -69.054886 0.39066619
-15.623648 -68.744881 0.01546368
-15.200457 -68.572845 0.017267466
-14.806092 -68.515526 0.018254429
-8.6973705 -68.504211 0.025878012
-8.016325 -68.723373 0.14681426
-7.680336 -68.771729 0.26858586
-7.3233423 -68.865784 0.26842004
-2.0393102 -68.736404 0.20986381
-1.7371392 -68.705307 0.18414101
-14.155579 -68.311127 0.14342931
-13.742425 -68.269936 0.021453589
-13.48785 -68.252487 0.021930069
-12.67371 -68.424835 0.14448598
-12.319566 -68.277145 0.084401816
-11.785388 -68.343307 0.14573869
-11.215762 -68.201485 0.19565046
-10.636107 -68.300217 0.025231391
-10.234592 -68.405365 0.08590892
-9.8178282 -68.416611 0.14705467
-1.2773283 -68.252274 0.2718516
-0.93979514 -68.045662 0.15306515
-1.0599723 -67.802711 0.39270821
-0.69895267 -67.721024 0.22606668
-0.54041791 -67.404968 0.03785789
-0.29722738 -67.20575 0.21650913
-0.057836413 -66.874138 0.04153353
0.18142402 -66.785118 0.27693337
0.40051144 -66.392921 0.21979776
0.73884284 -66.170235 0.27910116
1.0751448 -65.731071 0.33805728
1.9827647 -65.166138 0.2823146
1.8974152 -64.879387 0.22592643
2.1709487 -64.697449 0.17012331
6.5677662 -64.811874 0.3970829
2.3434246 -64.362869 0.22828326
2.6938884 -64.059555 0.285932
2.9253306 -63.714264 0.21233439
3.1908793 -63.610977 0.28737167
3.2651701 -63.322861 0.20453984
3.5576541 -63.098713 0.28901863
3.7361078 -62.755581 0.25323093
4.059866 -62.538952 0.1807006
3.8432508 -62.438892 0.23610908
4.219451 -62.223881 0.21875057
4.4112663 -61.965366 0.29260099
4.7556725 -61.665161 0.29357284
4.8584232 -61.300846 0.40278095
5.1565857 -61.148537 0.29519773
12.806356 -61.056522 0.2922464
11.107458 -60.694073 0.18621755
11.302866 -60.248478 0.29543412
6.3140812 -59.363365 0.40564373
11.64943 -59.450249 0.40440279
6.7788649 -58.727421 0.40657049
12.605831 -58.890152 0.29942578
14.068492 -58.580673 0.4049997
7.2013578 -58.271152 0.3452605
12.650027 -58.030357 0.30219474
13.324651 -58.122223 0.40595004
13.6838 -58.298687 0.40556127
7.327755 -57.537838 0.0009483397
7.6085987 -57.761322 0.23747671
12.907038 -57.728477 0.30300719
7.7329216 -57.306435 0.27328038
7.7980413 -56.956875 0.20726532
8.1538086 -56.7896 0.25825316
7.8969507 -56.309589 0.010825932
8.2758236 -56.33205 0.33496425
8.5966597 -56.005165 0.31103218
8.3171282 -55.803955 0.13864306
8.6142883 -55.687641 0.25286603
8.47402 -55.348957 0.018351674
8.7929993 -55.246593 0.21532783
9.102952 -55.189247 0.21530819
12.451341 -55.176388 0.014118433
12.740307 -55.209015 0.11266392
8.9233284 -54.746964 0.071581095
9.129262 -54.785339 0.36346465
11.525502 -54.559822 0.020831764
9.2593927 -54.299892 0.15067777
9.5927229 -54.190975 0.34859133
10.468319 -54.188286 0.025578171
10.778463 -54.270729 0.024423629
11.210135 -54.469082 0.022093207
9.394309 -53.721695 0.1267198
9.8007364 -53.767826 0.20596099
10.103659 -53.670525 0.17409486
9.790246 -53.228565 0.2248458
10.221253 -53.126419 0.31965411
9.9135752 -52.762028 0.13260764
10.226066 -52.732067 0.25033921
13.958605 -52.65596 0.12777486
14.184914 -52.775425 0.12661773
10.369844 -52.316452 0.16626084
10.612218 -52.241447 0.35344011
12.590983 -52.120445 0.039432406
10.720555 -51.780849 0.25426432
11.512471 -51.530586 0.046274006
10.918016 -51.363701 0.32523769
11.134328 -51.294773 0.21442682
-12.039139 -50.555 0.4172754
11.262365 -50.738331 0.32675219
11.456674 -50.323971 0.32797521
11.551222 -50.099918 0.23852751
13.833572 -50.297211 0.23495919
15.131259 -50.185226 0.23382035
15.576986 -50.407387 0.23212478
-12.149581 -49.778889 0.29756001
-11.595702 -49.64743 0.14811137
-11.403397 -49.704948 0.057968855
11.871166 -49.541317 0.33028227
13.736378 -49.709042 0.14762881
-11.583174 -49.2995 0.21036032
-1.5535858 -49.249435 0.11765775
-1.420723 -49.309635 0.29125875
11.934729 -49.322475 0.24196926
12.12737 -49.142548 0.15379122
12.694126 -49.117775 0.10871524
12.418969 -48.351646 0.33373106
13.009395 -48.472294 0.24493021
12.595927 -47.880482 0.24833402
16.655497 -47.521034 0.33260357
12.795845 -47.320198 0.33676529
14.869877 -47.306984 0.24819484
16.163847 -47.251026 0.29043978
12.850438 -46.770996 0.4234958
13.056375 -46.843975 0.17169544
13.935817 -46.531799 0.25325626
14.49518 -46.873146 0.16490561
14.817822 -46.912216 0.12550873
12.953749 -46.487057 0.42388847
13.223596 -46.387062 0.19977951
13.674515 -46.369015 0.1445303
1.1790841 -45.53685 0.10652301
13.387915 -45.783951 0.28519398
13.596154 -45.638241 0.053591967
0.78864497 -45.219189 0.19056928
13.738679 -44.622429 0.38547865
15.873642 -44.588684 0.3426514
13.851473 -44.298862 0.32487011
14.327935 -44.047539 0.34590119
14.88137 -44.066051 0.18246701
15.160081 -44.163124 0.14190775
15.956055 -44.41375 0.30183458
13.936666 -43.888763 0.26578605
14.260619 -43.826786 0.11842829
14.645593 -43.94548 0.23234543
15.228966 -43.551895 0.18508759
14.177208 -43.218487 0.42832205
14.286651 -42.759312 0.42896214
14.636192 -41.784386 0.43025807
15.977065 -41.507172 0.11883786
16.288675 -41.567009 0.14617133
14.907044 -41.369488 0.43074501
15.263407 -41.310646 0.3537719
15.763617 -41.37899 0.07401222
16.040768 -41.467785 0.048982292
16.771399 -39.035423 0.26338649
17.067163 -39.059193 0.17420614
15.463584 -38.598522 0.21643263
15.742944 -38.731636 0.13321635
16.222637 -38.82518 0.24772722
16.746311 -38.774414 0.28720105
14.4656 -38.007259 0.43596789
15.287623 -38.122345 0.2201013
15.578597 -38.257736 0.14602458
16.952404 -38.30397 0.18180409
12.506662 -37.55587 0.16022962
13.390232 -37.633926 0.27412593
13.97293 -37.588554 0.1560744
14.24717 -37.71862 0.24892297
14.764195 -37.721035 0.22589362
15.346079 -37.868721 0.22136754
16.497795 -37.715885 0.43526888
-0.28042388 -37.267963 0.27702332
10.827941 -37.028709 0.26993471
11.37583 -37.147499 0.21165618
11.654566 -37.207054 0.30182076
12.114099 -37.321484 0.31965202
12.841812 -37.408432 0.19732043
13.147509 -37.297749 0.098381311
13.645262 -37.101528 0.33399397
14.229437 -37.240307 0.33271873
14.668992 -37.366306 0.29653803
15.773467 -37.003094 0.22582594
8.9208708 -36.557255 0.22029883
9.2688513 -36.633934 0.27468568
9.6717424 -36.719193 0.27457613
10.372215 -36.872536 0.1874494
10.722378 -36.937614 0.23907122
12.857549 -36.779778 0.14267746
13.310654 -36.789978 0.13352212
13.668804 -36.713123 0.23261565
14.092443 -36.723068 0.30042887
14.677144 -36.681206 0.28570789
15.03317 -36.662067 0.33366281
16.205248 -36.716049 0.15642399
16.557964 -36.739494 0.43665117
17.419416 -36.597546 0.43632132
17.831152 -36.648663 0.4359836
18.193384 -36.509464 0.15093693
18.799164 -36.583801 0.0049544573
7.7771187 -36.283653 0.049893022
8.2142296 -36.373043 0.1494391
8.6666756 -36.306061 0.24428353
12.35351 -36.009151 0.43998912
12.78853 -36.132282 0.2376748
13.230916 -36.179218 0.15307069
13.702868 -36.29258 0.20314103
14.243934 -36.416962 0.30175483
14.616933 -36.47588 0.33507687
16.272352 -36.158321 0.25156704
16.76716 -36.215759 0.2400251
17.253754 -36.284561 0.21110812
17.727217 -36.35183 0.17046383
18.264374 -36.457386 0.0090890229
9.7509766 -35.607201 0.18250763
10.726727 -35.563599 0.32974541
11.203897 -35.66333 0.20703724
11.821217 -35.792557 0.2041449
12.211361 -35.913391 0.25895816
16.472185 -35.988636 0.29954308
16.581745 -35.89304 0.29977089
17.729858 -35.947369 0.36710778
8.4332762 -35.007839 0.18999064
8.728096 -35.056259 0.22080511
9.2491617 -35.180782 0.2325528
9.7419491 -35.324051 0.28315151
10.155095 -35.414589 0.24791378
10.597368 -35.475735 0.18404901
7.7803459 -34.802734 0.0047133267
8.2552729 -34.913239 0.099719733
8.6187048 -34.98843 0.13284925
16.847212 -34.470314 0.30581927
20.164478 -34.01783 0.024864733
16.815903 -33.627216 0.27764708
17.283312 -33.595242 0.26933035
17.753437 -33.624645 0.22959602
18.186749 -33.681541 0.20234907
18.681952 -33.790035 0.072695285
19.246044 -33.903038 0.031352609
19.794523 -33.915062 0.02809611
16.887867 -33.462479 0.25934345
17.127815 -33.469963 0.29802126
17.801447 -33.384441 0.44063705
17.137354 -32.799446 0.37738776
17.533318 -32.409081 0.44219607
16.99305 -31.093317 0.32076776
17.183714 -31.071493 0.2895968
17.8393 -31.026821 0.2666854
18.295916 -31.034103 0.26283443
18.667593 -31.042385 0.21869895
19.279078 -31.109873 0.060590744
19.751776 -31.157618 0.057218879
20.083931 -31.211807 0.054609656
20.564459 -31.252844 0.051177561
17.235903 -30.89109 0.32899299
17.734562 -30.964037 0.29002374
18.209198 -30.978016 0.33416581
17.335283 -28.634584 0.11737433
17.702095 -28.55686 0.13959894
20.395355 -28.503031 0.019293845
20.543968 -28.505642 0.018121868
17.327765 -28.277191 0.34805354
17.783087 -28.307785 0.3044222
18.251507 -28.293301 0.30177587
18.67716 -28.313446 0.30274737
19.188025 -28.398134 0.11881292
19.800037 -28.410641 0.10225677
20.205551 -28.446875 0.072889298
20.747526 -28.442404 0.04780075
21.144613 -28.370886 0.04570204
21.191702 -27.73321 0.021775633
21.181448 -27.204296 0.027773261
-14.198024 -26.514942 0.12704518
-13.894114 -26.524033 0.12873119
-12.536674 -26.560846 0.24147373
-12.251754 -26.55723 0.24700233
-11.782172 -26.622465 0.30033362
-11.321719 -26.564331 0.20662725
-10.752316 -26.625795 0.41748992
-10.237455 -26.689783 0.24633995
-9.9652224 -26.679646 0.070714623
-2.6633577 -26.670624 0.16985521
-15.676989 -26.322704 0.037333697
-15.234787 -26.39949 0.058056355
-14.517291 -26.469601 0.017085731
-14.292917 -26.447908 0.083994806
-13.90105 -26.462284 0.075616449
-12.223315 -26.368448 0.33891535
-11.752315 -26.328869 0.20401484
-11.428925 -26.485729 0.1943346
-9.6970339 -26.209524 0.0033042431
-9.253974 -26.149052 0.15726537
-8.8831587 -26.324221 0.0065006316
-2.2862992 -26.326193 0.38736597
-1.8306115 -26.232647 0.36514574
16.85137 -26.166 0.045600444
17.269819 -26.043566 0.12539941
-11.788969 -25.646624 0.11243773
-9.6516504 -25.853828 0.37495619
-9.2934895 -25.850462 0.17063284
-8.8436203 -25.514557 0.01984787
-2.0526664 -25.717163 0.12225869
-1.1146336 -25.733236 0.21022877
-0.58267832 -25.681568 0.13298246
-0.42831969 -25.783918 0.015111566
17.374662 -25.741522 0.33645517
17.746456 -25.676481 0.31920138
18.271109 -25.672905 0.33071446
18.736778 -25.659645 0.30510005
19.234251 -25.685102 0.21125898
19.71567 -25.673311 0.15996769
20.274975 -25.653599 0.1039452
20.792608 -25.664839 0.076602876
21.164362 -25.634327 0.079774231
-9.0924168 -25.091404 0.19538233
-8.8742552 -25.060566 0.042910486
-2.5065434 -25.389242 0.094594568
-2.2642345 -25.385649 0.12150028
-1.8998463 -25.408121 0.1539315
17.529554 -25.445148 0.29079622
21.254301 -25.29566 0.06251809
-9.6798754 -24.862907 0.43282646
-9.2159109 -24.856071 0.20457223
-8.888298 -24.827909 0.030646533
-3.0128262 -24.515923 0.1068655
-2.7176342 -24.682434 0.085963517
-2.4240134 -24.979015 0.30501103
21.253386 -24.715694 0.054429442
-11.853858 -24.063671 0.35982478
-11.200908 -24.054333 0.36136848
-10.816878 -24.003044 0.40988567
-10.153913 -24.044521 0.39504004
-9.7298126 -24.04915 0.22923246
-9.3835335 -24.057543 0.062987864
-3.6962178 -24.087738 0.043678254
-3.2740772 -24.301207 0.068351388
2.6278265 -24.168364 0.20402786
21.224939 -24.248308 0.017908841
-16.266739 -23.507509 0.45359474
-15.649647 -23.68549 0.22390243
-15.242678 -23.684944 0.25714499
-14.748816 -23.722776 0.27592856
-14.264724 -23.759123 0.25824067
-13.772781 -23.800354 0.3121143
-13.220267 -23.82761 0.36063319
-12.753537 -23.835016 0.31049508
-12.222884 -23.852339 0.27862087
-11.800326 -23.886353 0.28092954
-11.264343 -23.898888 0.26988328
-10.865105 -23.944675 0.25210765
-10.174171 -23.953081 0.39225692
-9.7487078 -23.932188 0.190413
-9.4105177 -23.99423 0.040581316
-5.2288351 -23.579723 0.027312338
-4.7197227 -23.691154 0.027581781
-4.212328 -23.871166 0.043755144
-3.9438035 -23.977205 0.054467589
2.0081987 -23.58346 0.041928291
2.5107746 -23.53212 0.042403847
21.204422 -23.848934 0.0089310706
-15.863794 -23.473021 0.45400575
2.3609891 -23.263357 0.12195072
2.5949688 -23.267504 0.033628702
3.1950665 -23.142052 0.2465243
17.24556 -23.141113 0.4174507
17.734627 -23.027411 0.40426064
18.244799 -23.017906 0.35221434
18.551105 -23.033245 0.2031011
20.782822 -23.172092 0.021201998
21.078621 -23.188704 0.018043667
2.2709854 -22.697987 0.11839166
2.6568637 -22.709976 0.18248442
3.196101 -22.735497 0.18252295
17.358805 -22.972563 0.39094791
17.778919 -22.98288 0.34495443
18.273962 -22.958588 0.35837033
18.754904 -22.941149 0.30863386
19.28915 -22.930445 0.24294329
19.739429 -22.90826 0.20113167
20.242947 -22.888506 0.1592797
20.728691 -22.837812 0.13405624
21.117403 -22.711201 0.088780165
2.2538486 -22.181011 0.32585615
21.098558 -22.245739 0.081865698
2.2716823 -21.689884 0.31132269
3.2488918 -21.863665 0.33420193
17.430447 -21.692066 0.22076529
21.069223 -21.74966 0.076810092
2.3714843 -21.145689 0.22202006
2.711297 -21.247614 0.30514908
3.208046 -21.201029 0.22984225
20.985472 -21.321161 0.040773362
21.057747 -21.214449 0.067045629
1.1983945 -20.612764 0.26382124
2.3614583 -20.937868 0.32478279
2.7400527 -20.93708 0.37258509
3.2751174 -20.960484 0.37839213
17.090975 -20.57263 0.43525141
20.791224 -20.512245 0.052034616
21.011427 -20.824545 0.063216865
17.243477 -20.364878 0.4159475
17.754486 -20.32185 0.39229903
18.253429 -20.267761 0.37015995
18.733912 -20.218456 0.32993299
19.229874 -20.176191 0.28177047
19.761871 -20.130594 0.24573189
20.273029 -20.081581 0.19722563
20.71282 -20.146746 0.091989458
21.025909 -20.256245 0.002094835
20.867382 -19.860498 0.12798989
21.036661 -19.816778 0.091225624
20.889454 -19.238495 0.10955301
21.022512 -19.470833 0.011813641
20.826038 -18.773335 0.089532197
20.392109 -18.113632 0.036002725
20.813982 -18.2838 0.10010538
16.832003 -17.749392 0.44630739
17.250532 -17.651039 0.41931415
17.749485 -17.592855 0.40402153
18.206886 -17.532923 0.3766678
18.601355 -17.520784 0.28481114
20.293358 -17.695492 0.057608724
20.700106 -17.687799 0.083928734
18.364277 -17.479422 0.3922582
18.778761 -17.455536 0.32885414
19.254765 -17.404219 0.30488589
19.732254 -17.342991 0.26212204
20.2173 -17.279779 0.15725651
20.628967 -17.18055 0.16906571
20.068989 -16.738457 0.030704707
20.622601 -16.764494 0.15374032
19.997177 -16.087881 0.064684063
20.135458 -16.252483 0.05129981
20.570366 -16.262331 0.16191509
19.958721 -15.722708 0.054827839
20.405237 -15.764029 0.1127651
20.539394 -15.776443 0.17194998
16.432459 -15.107166 0.46556947
16.665522 -15.057871 0.4440015
17.109568 -15.069355 0.38675162
17.584867 -15.01907 0.34559041
19.881588 -15.241283 0.057318479
20.392769 -15.248571 0.1298278
16.924881 -14.98933 0.43936047
17.270405 -14.938179 0.42571861
17.760305 -14.856344 0.40489662
18.230082 -14.771002 0.38005084
18.73682 -14.697578 0.33318424
19.272076 -14.603926 0.29847258
19.760483 -14.637712 0.16477245
20.215189 -14.670858 0.13069788
19.754669 -14.351171 0.14211082
20.227358 -14.329287 0.20729217
19.620153 -13.766888 0.057416469
20.214701 -13.768761 0.19226247
19.466726 -13.166813 0.031368852
19.574469 -13.306196 0.073651373
20.163418 -13.25424 0.17221859
16.018524 -12.565306 0.46877781
19.427542 -12.739412 0.055657893
19.545799 -12.840206 0.10571912
20.08893 -12.776533 0.17476326
-7.6502295 -12.083542 0.16348985
-7.1145697 -12.082191 0.16349491
-6.9810333 -12.122404 0.1709263
-6.1611719 -12.057627 0.023923665
16.275942 -12.403164 0.45277423
16.776146 -12.292711 0.43506342
17.266785 -12.178072 0.41798446
17.740257 -12.074427 0.39412969
18.075001 -12.017668 0.33844393
19.362911 -12.268143 0.086459577
19.982307 -12.261841 0.14511508
20.039568 -12.494017 0.14235801
-9.8213825 -11.699974 0.13094485
-8.0382071 -11.630953 0.19698051
-7.723073 -11.754631 0.22446859
-7.2623987 -11.957903 0.12141016
-6.7179918 -11.876123 0.10318545
-6.2763643 -11.838566 0.19425136
-2.6388588 -11.687679 0.033875048
-2.4434602 -11.549467 0.046785682
17.999332 -11.997229 0.46690464
18.270094 -11.940619 0.3696233
18.760525 -11.835884 0.32543397
19.266226 -11.734262 0.19377828
19.714888 -11.616386 0.23979029
-8.1640844 -11.334682 0.32311279
-7.7843637 -11.268536 0.36067408
-7.1514692 -11.100447 0.11354443
-6.7097273 -11.25094 0.088082612
-6.2500048 -11.255096 0.030164838
-2.1936841 -11.245943 0.057789236
-1.759176 -11.109976 0.050134152
-1.4802983 -11.108143 0.047171831
19.18042 -11.235416 0.070009947
19.781712 -11.242485 0.24068406
-8.0958872 -10.803301 0.16166365
-7.8036671 -10.739779 0.12329537
-7.2423544 -10.593685 0.072986752
-6.7735806 -10.627611 0.054643661
-6.3553028 -10.759233 0.027030051
-2.2387519 -10.66036 0.043379128
-1.7424707 -10.729992 0.067210138
-1.4953041 -10.697168 0.032417923
18.994339 -10.517641 0.062316716
19.084854 -10.739773 0.077852547
19.681576 -10.734394 0.22264183
-8.0877829 -10.466919 0.093017191
-7.9571953 -10.464411 0.095451295
-7.1654062 -10.487127 0.14466166
-2.650919 -10.299889 0.027871579
-2.4640501 -10.431263 0.026563615
15.499063 -10.003433 0.47192332
18.957251 -10.190207 0.069253236
19.02952 -10.325743 0.11084482
19.577314 -10.248274 0.21375963
15.452208 -9.8545799 0.47211966
15.770825 -9.7260551 0.45758197
16.270313 -9.6142445 0.44330224
16.597328 -9.5233669 0.44401619
18.878271 -9.7468548 0.087985724
19.465715 -9.7467766 0.20100078
19.548914 -9.88764 0.22576666
16.83746 -9.4446926 0.42291078
17.240486 -9.3342018 0.4052901
17.764862 -9.2134933 0.36519042
18.201969 -9.0720959 0.34807956
18.791285 -9.2284813 0.10962683
19.304232 -9.2550831 0.17496401
1.7554158 -8.7171898 0.25408226
18.484406 -8.9879246 0.29891288
18.759136 -8.8276062 0.18490773
19.173447 -8.7339687 0.26226008
1.807081 -8.3295822 0.19696197
18.464619 -8.1401558 0.087340891
18.57942 -8.2899246 0.10491273
19.098669 -8.2575188 0.24891451
14.839651 -7.6234984 0.46361452
18.386646 -7.737597 0.1009624
18.913746 -7.7353253 0.22331262
19.046072 -7.898417 0.28353903
14.87466 -7.4425941 0.46297812
15.253602 -7.3029633 0.45751733
15.750315 -7.1362572 0.44085771
16.060957 -7.0256934 0.4401181
18.239813 -7.2507396 0.1068607
18.821871 -7.274303 0.23033172
14.441474 -6.6449704 0.27598315
14.58799 -6.8336525 0.38299444
16.314194 -6.9308515 0.41803038
16.74312 -6.7707739 0.41334027
17.210398 -6.5950422 0.38138855
17.766617 -6.5348105 0.28136978
18.121073 -6.7611027 0.11231175
18.663183 -6.7443895 0.18604684
-8.5939817 -6.0834427 0.32098135
-8.2778225 -6.1635475 0.30925941
-7.8064175 -6.2574167 0.23935828
-7.2292271 -6.2679939 0.11557588
-6.9255629 -6.2107058 0.079586297
14.330048 -6.4543147 0.16208303
17.432932 -6.4784064 0.37363711
17.809338 -6.3121529 0.26465809
18.260086 -6.1922603 0.2672852
18.543423 -6.4416504 0.14160478
-8.6096191 -5.8061013 0.35747015
-8.4133406 -5.5907159 0.42179519
-7.6754456 -5.5890846 0.2666474
-7.2328329 -5.7473187 0.23454177
-6.8463364 -5.702312 0.11632547
17.724745 -5.7520428 0.099539429
18.316177 -5.7636805 0.26733547
-10.836997 -5.0045815 0.0018888116
-9.2367058 -5.0369482 0.38247612
-8.5998707 -5.2154403 0.39033335
-8.3523808 -5.3964415 0.38531393
-7.7295237 -5.2538052 0.26284611
-7.1897154 -5.2298393 0.22328296
-6.8428421 -5.2679038 0.11941004
13.95778 -5.1660223 0.47783145
14.165071 -5.0321512 0.46921688
17.458708 -5.118937 0.10901847
17.568571 -5.3395762 0.1065059
18.157879 -5.2459741 0.23224154
-10.833452 -4.9527693 0.0028441548
-9.1604261 -4.6835375 0.28019094
-8.7304039 -4.6880202 0.23421797
-8.2457771 -4.6889324 0.20112017
-7.7460594 -4.714819 0.16185829
-7.2576952 -4.7733192 0.13212597
-6.8826704 -4.8413591 0.088780046
14.270959 -4.9030271 0.34082612
14.791677 -4.7193542 0.45653293
15.155675 -4.5622721 0.44214734
17.325508 -4.7575908 0.11441618
17.885544 -4.6458669 0.17687887
18.060238 -4.8667159 0.23017752
15.359129 -4.4506516 0.43141723
15.754194 -4.2924438 0.41731578
16.202511 -4.0928931 0.41000879
16.90539 -4.0413857 0.15638351
17.125549 -4.2469611 0.11088464
17.802452 -4.3009863 0.21464249
16.442438 -3.9747119 0.37391657
16.80632 -3.7850952 0.26149422
17.204988 -3.6584539 0.29297078
17.596266 -3.8203177 0.21410337
16.497932 -3.0072863 0.14283448
16.665279 -3.2392757 0.1132699
17.273081 -3.2561688 0.30860618
12.724422 -2.5793333 0.4810051
13.081384 -2.5018206 0.45881504
16.385138 -2.7223289 0.10687536
16.800631 -2.7069781 0.22686467
17.090141 -2.8311636 0.29021931
12.818374 -2.427794 0.48092079
13.252529 -2.2366703 0.46220702
13.654507 -2.0566862 0.44859895
14.060279 -2.0315638 0.38647321
16.163515 -2.2443779 0.11541796
16.812269 -2.2692101 0.26370931
13.858456 -1.9285934 0.44107553
14.251818 -1.7624934 0.42211673
14.669708 -1.5716488 0.41220695
15.924024 -1.7306213 0.12554908
16.267643 -1.8355632 0.17037299
16.628883 -1.7801573 0.19713613
12.09514 -1.1859081 0.10077006
14.894268 -1.4533637 0.40045318
15.246424 -1.2896681 0.38861462
15.686481 -1.177595 0.20426041
16.303354 -1.2516915 0.19939044
16.526718 -1.4308487 0.22103426
11.906683 -0.76619613 0.31714559
12.041039 -0.94801426 0.2304979
15.415236 -0.68909895 0.11126402
15.808296 -0.75776875 0.2873407
16.087427 -0.75567651 0.29829353
11.458108 -0.070448041 0.47994131
11.519723 -0.043213248 0.46516538
15.229704 -0.25509709 0.10033444
15.839215 -0.24816447 0.30703411
16.012392 -0.45956337 0.25365585
1.0197906 0.064302564 0.40157959
11.440465 0.086487412 0.47841004
11.760228 0.22200117 0.45654345
12.182561 0.38466319 0.43645298
12.59807 0.44106376 0.38288105
14.927619 0.35064527 0.086084664
15.136411 0.16300181 0.099498481
15.641973 0.24217317 0.25156873
1.0238249 0.94611061 0.3990359
12.406927 0.53531396 0.43799892
12.771811 0.66733897 0.4147363
13.243845 0.86678141 0.40193141
13.58032 0.90056455 0.33910698
14.765589 0.75765568 0.080296427
15.410377 0.76022559 0.21452281
15.529148 0.54861468 0.21285635
1.0247148 1.0142286 0.38259965
13.790459 1.1041602 0.38052475
14.316159 1.3532361 0.27712992
14.630893 1.2383419 0.130027
15.271381 1.1623473 0.1823315
14.323557 1.7465594 0.070576757
14.864811 1.7957255 0.31912091
15.049715 1.6617693 0.16682446
-0.85472882 2.479713 0.39100379
13.978827 2.493567 0.044754982
14.120918 2.2519555 0.082739025
14.72944 2.2500463 0.30905974
-1.071183 2.757797 0.1203182
-0.79242682 2.6339886 0.27297503
10.339289 2.6882758 0.48497853
10.647153 2.8290012 0.38636827
11.193844 2.9480073 0.42883676
13.900412 2.7743521 0.081705153
14.40416 2.8132193 0.36898518
14.582817 2.7015102 0.26817492
10.874913 3.0497584 0.46034223
11.25907 3.1673863 0.43871459
11.689409 3.2894154 0.41334552
12.249071 3.437938 0.36032838
13.729778 3.2469118 0.094752878
14.342227 3.2480428 0.32322901
14.518246 3.0129235 0.16706389
11.900338 3.511683 0.46259537
12.250844 3.6053803 0.40789062
12.749788 3.7626817 0.37368876
13.414275 3.9096105 0.16969156
13.602935 3.7310166 0.11888868
14.194576 3.6998909 0.26669678
2.4720848 4.4633036 0.24500397
2.5294623 4.4578404 0.29611474
13.35431 4.2465277 0.13584694
13.862639 4.3458691 0.27776527
14.051437 4.1187639 0.098746032
2.4817557 4.5189352 0.34592003
2.5609882 4.5162401 0.41870278
13.181481 4.7544355 0.14066094
13.743021 4.7457123 0.30255246
-2.2006962 5.1117468 0.11180219
-1.8278878 5.3267517 0.16330418
9.5620918 5.4341793 0.48452365
12.947294 5.3649025 0.15428358
13.196813 5.2373314 0.24417636
13.58948 5.2299294 0.27481815
-7.1264725 5.8452168 0.28140959
-6.71241 5.8019972 0.21812725
-6.2523365 5.7837043 0.18465468
-5.7398291 5.7469492 0.1659829
-5.2725449 5.8040056 0.12105352
-4.9867125 5.9803662 0.049257904
-1.5671518 5.6196995 0.20652717
-1.2724531 5.7023926 0.25278175
-0.94737542 5.7649698 0.19150159
9.6929722 5.6258903 0.38598037
10.277747 5.7451634 0.44995299
10.7302 5.8408847 0.4419024
11.144728 5.9571919 0.44463933
12.821453 5.7473793 0.14640206
13.379192 5.7644014 0.31071627
13.519078 5.5612264 0.1757617
-7.2205238 6.250401 0.36976528
-6.7216339 6.2647409 0.39335242
-6.2328672 6.1875887 0.38437301
-5.7168703 6.2380261 0.30044454
-5.2466755 6.2640457 0.22964051
-4.9487848 6.2936287 0.054008543
-1.5329843 6.3492613 0.25331062
-1.3007309 6.2638245 0.25983486
-0.92495108 6.103848 0.20441395
10.850428 6.0440779 0.40357721
11.269886 6.1188011 0.39758003
11.74577 6.2361484 0.40321937
12.263527 6.376152 0.21049795
12.657539 6.2528291 0.17170307
13.208184 6.238328 0.28994215
-7.3330002 6.5327597 0.4214291
-6.6201038 6.8215909 0.3697646
-6.2913704 6.7145152 0.38587749
-5.755374 6.807395 0.30824155
-5.198967 6.6575308 0.19343966
-4.9625864 6.5442657 0.068001717
-2.0239794 6.9044476 0.11386418
-1.8719435 6.8326707 0.1624372
12.362243 6.7779169 0.16341165
12.637818 6.6391664 0.19429818
13.080585 6.6601138 0.23804101
-6.5988197 7.0458159 0.4410032
-6.3917322 7.0633202 0.34688637
-2.6173522 7.2784867 0.063283533
-2.3440592 7.1286483 0.15797731
12.258556 7.2631631 0.16137773
12.860625 7.2676816 0.21191519
11.982846 7.9566517 0.15216666
12.090261 7.731442 0.15733805
12.672545 7.7537951 0.28712729
8.7903576 8.3592548 0.45275867
9.1756763 8.407877 0.47317085
9.5489855 8.46768 0.48168966
11.894014 8.2578592 0.15439036
12.432338 8.3459015 0.344549
12.555738 8.1416988 0.26509586
8.820796 8.5556011 0.44655502
9.3676186 8.5885525 0.44629049
9.7599697 8.6315956 0.44190431
10.259634 8.768898 0.42504105
10.759885 8.892704 0.42073977
11.152256 8.9686623 0.42008066
11.727077 8.7505627 0.14836293
12.323443 8.748085 0.30693617
10.300158 9.0353699 0.37250519
10.845019 9.0984764 0.34292406
11.333788 9.2050743 0.31674716
11.634564 9.2171249 0.21275386
12.164295 9.1965675 0.28550416
11.399916 9.755146 0.14197397
11.878943 9.8135109 0.18822727
12.0317 9.7012901 0.074630588
11.252981 10.245537 0.13804105
11.865563 10.263103 0.22264361
10.988955 10.98756 0.098776549
11.122296 10.758821 0.14056754
11.689799 10.749067 0.25653851
8.4080973 11.27219 0.47951016
8.7804461 11.290085 0.47015157
9.2218409 11.380116 0.46581712
9.6006393 11.458618 0.47332418
10.931196 11.262012 0.14908564
11.339306 11.289387 0.32211164
11.557064 11.206575 0.23713428
8.7311907 11.51967 0.45545739
9.3569784 11.539618 0.43006474
9.7923174 11.56806 0.43289745
10.24238 11.709694 0.40925828
10.771852 11.790449 0.23929057
11.349949 11.775171 0.31460696
10.644671 12.239302 0.15283388
11.244612 12.195654 0.23568389
10.455092 12.845251 0.15283227
10.561955 12.637079 0.13126051
11.123005 12.763853 0.19524229
10.345421 13.243484 0.15863273
10.909731 13.306257 0.2568298
11.037676 13.120848 0.17618248
10.215864 13.746042 0.16032174
10.816567 13.764334 0.25942445
7.8622561 14.073927 0.47615454
8.2747345 14.161884 0.46408725
8.7742891 14.262856 0.4562017
9.2681084 14.39797 0.43533573
9.7117462 14.458128 0.4036842
10.109248 14.235939 0.17980528
10.658294 14.250036 0.26448861
9.2564621 14.517771 0.38945973
9.9102345 14.692072 0.24971125
10.249998 14.6609 0.32824808
10.546543 14.648279 0.21721852
6.3492346 15.277039 0.2492044
7.8964615 15.008018 0.418841
9.8491831 15.259497 0.19544032
10.339845 15.274298 0.17116469
10.502974 15.01878 0.019142002
6.2972078 15.692249 0.30753958
9.7429371 15.74881 0.19677445
10.307037 15.765123 0.15893707
6.1908693 16.308826 0.34391683
9.6470633 16.25242 0.21901682
10.205677 16.260588 0.20666814
6.2173557 16.802971 0.30388796
9.5532808 16.729174 0.2246238
10.103385 16.743404 0.2072455
5.9888163 17.480556 0.34888697
6.0476055 17.21526 0.35847732
7.9430113 17.162622 0.47169149
8.2712965 17.18261 0.46745208
8.7543726 17.294609 0.45357287
9.3678017 17.345831 0.31319699
9.8249979 17.377005 0.29114377
10.036083 17.176809 0.18205175
5.9267464 17.78743 0.36260241
9.3309441 17.754185 0.24361479
9.8604469 17.727549 0.19622156
5.843667 18.20822 0.4393214
9.2556591 18.289125 0.24793255
9.7782078 18.252712 0.15268585
5.8776989 18.551403 0.47067437
9.1904888 18.744238 0.23312786
9.7058668 18.746206 0.18011063
9.0920391 19.249853 0.26157248
9.6113186 19.239025 0.18521291
5.7529287 19.799595 0.45150238
6.1617041 19.6455 0.22682017
8.1305075 19.961922 0.46748826
8.9077129 19.772688 0.25214458
9.2745485 19.743593 0.3106209
9.5505991 19.729164 0.17331228
8.8527117 20.095644 0.32306853
9.3166971 20.251062 0.259682
9.5123796 20.112793 0.031601727
9.3115044 20.750097 0.11756405
8.5894365 21.350534 0.250251
9.2279768 21.103987 0.18901682
8.4852858 21.86198 0.2988314
8.5507069 21.695322 0.27221394
5.2470245 22.247396 0.35990852
8.4189978 22.23127 0.28940886
8.9002934 22.333145 0.23594716
9.0318489 22.216805 0.1673772
7.7893486 22.813475 0.46340942
8.274148 22.816305 0.29628545
8.8682966 22.766317 0.23089996
8.2048178 23.182392 0.31341973
8.7515764 23.171095 0.21325886
7.9404945 23.877573 0.2725285
8.1309786 23.707283 0.25206435
8.6188316 23.662458 0.11107042
7.8399982 24.219498 0.24114555
8.4202213 24.272375 0.17156628
8.5309095 24.069073 0.094503433
4.3111525 24.830944 0.20915362
7.6720161 24.735382 0.24658158
8.2857466 24.758745 0.19113645
7.4642906 25.345642 0.26717052
7.6583328 25.253948 0.28753552
8.1163549 25.236794 0.22885877
7.3590059 25.693916 0.29058784
7.8205929 25.768406 0.27110219
8.0542507 25.640549 0.085711628
7.1425428 26.226244 0.25220898
7.7428417 26.246464 0.15868005
6.9207315 26.782444 0.26102448
7.2757406 26.784286 0.26940835
7.5937471 26.700539 0.17981517
6.6996984 27.248051 0.27197903
7.3422165 27.284027 0.2318494
7.5362492 27.083738 0.075178325
6.4337587 27.799761 0.30449468
6.6689129 27.676895 0.28420967
7.1737347 27.763046 0.23672909
6.2809381 28.239964 0.34383863
6.8745651 28.268806 0.2662124
7.0527048 28.086142 0.18455011
-77.212112 28.814974 0.17592898
-76.953934 28.597214 0.080736578
6.0965948 28.709318 0.30504963
6.7516232 28.683945 0.12677774
-76.920357 29.057936 0.36968759
5.8747988 29.225191 0.30179852
6.3556166 29.285154 0.25047138
6.6083231 29.13435 0.0895136
-77.244087 29.508682 0.22336987
5.6370554 29.74453 0.32443926
6.2787437 29.71928 0.2308774
5.3828392 30.22645 0.35455251
5.8697834 30.256907 0.31304443
6.1168661 30.205 0.14942235
5.218339 30.753857 0.34116501
5.7716093 30.795433 0.18857083
4.8826361 31.290215 0.34977776
5.3282003 31.265263 0.19640014
5.5772762 31.175753 0.086229295
4.6554532 31.806423 0.31312215
5.2977028 31.74007 0.13851523
4.4297562 32.276291 0.3105042
4.873539 32.289822 0.26190662
5.1011496 32.146221 0.12901375
4.2362571 32.756237 0.31991833
4.7821255 32.760963 0.21984813
3.8880565 33.306759 0.3231042
4.263195 33.356369 0.34595421
4.5785108 33.222588 0.1944328
3.7005839 33.750229 0.31471205
4.2878714 33.687607 0.17043877
3.4142678 34.293346 0.34049439
3.779438 34.274525 0.18730825
4.1071663 34.153126 0.08001709
3.2001002 34.719845 0.32660663
3.7681098 34.778816 0.18262202
2.8752227 35.239891 0.31539553
3.255091 35.232079 0.31035513
3.5799067 35.24575 0.19439405
2.4482746 35.869011 0.38270977
2.6371746 35.742863 0.33697963
3.3052938 35.747604 0.15555045
2.327759 36.210518 0.33996463
2.8674717 36.349392 0.20278472
3.0763588 36.147236 0.14371487
1.9516039 36.860703 0.25261009
2.172868 36.702507 0.31669015
2.7497647 36.724655 0.1681765
1.8236084 37.22057 0.33258605
2.3645632 37.268414 0.20298764
2.5376074 37.081337 0.12533647
1.4150934 37.847919 0.3545115
1.715006 37.792927 0.37658697
2.1858079 37.779541 0.21156266
1.2196033 38.264095 0.31837296
1.81431 38.283051 0.20781901
2.0356188 38.128284 0.1783168
0.82275128 38.832054 0.34625596
1.3753569 38.660946 0.29159999
1.6441886 38.688076 0.15632001
0.44522113 39.404598 0.33720231
0.58324152 39.201309 0.33806536
1.2593026 39.290024 0.16172689
1.5221927 39.023972 0.17074823
-0.0026494265 39.955898 0.36921313
0.19773829 39.792233 0.32868549
0.91223806 39.823654 0.17451808
1.0932001 39.587227 0.18456781
-0.23936713 40.263096 0.34039691
0.37120438 40.493134 0.22793561
0.6586144 40.252159 0.20236647
-0.61691487 40.814419 0.34283179
-0.23224044 40.688164 0.34945887
0.2725181 40.759949 0.2082772
0.56436586 40.545086 0.15774915
-1.0401878 41.397778 0.36430526
-0.80223453 41.165188 0.31777626
-0.093586564 41.266518 0.11688435
0.10727382 41.096954 0.084582806
-1.2138638 41.76413 0.31493169
-0.67568684 41.803391 0.20235264
-0.34093654 41.709072 0.16737971
-1.5877898 42.335777 0.25147825
-1.2844379 42.327259 0.23932213
-0.79271185 42.290947 0.24138823
-0.46641004 42.011505 0.14500666
-1.8205011 42.786942 0.27522558
-1.2439406 42.778984 0.25519875
-0.96483684 42.633762 0.10643238
-2.215754 43.27449 0.26169407
-1.6948478 43.292431 0.27318579
-1.4078007 43.128178 0.17604521
-2.701616 43.745914 0.23505372
-2.1636081 43.943623 0.39364153
-1.8834488 43.694069 0.084662497
-3.1424921 44.16547 0.25266275
-2.754106 44.294239 0.20067114
-2.3261926 44.221783 0.20453209
-4.0624485 44.661472 0.23639607
-3.8059256 44.784161 0.25517946
-3.2718732 44.73476 0.31414345
-2.7328825 44.750725 0.26737371
-7.9241743 45.267986 0.42834121
-4.1947117 45.22863 0.19645151
-3.6897728 45.103729 0.31230396
-3.2921512 45.322868 0.26508695
-2.9594064 45.117226 0.19770035
-4.5588684 45.914459 0.26856667
-4.1481342 45.993248 0.34827176
-3.6485198 45.656849 0.19410437
-3.3978326 45.595482 0.077202439
-4.8420849 46.23925 0.26675719
-4.1847734 46.375206 0.14982694
-3.8970406 46.163471 0.083508164
-5.1640635 46.830139 0.26358116
-4.6261311 46.919025 0.19973928
-4.3618336 46.714386 0.28476354
-5.6776524 47.284283 0.3294735
-5.2589493 47.321247 0.26222521
-4.822711 47.228748 0.27481624
-6.1214705 47.926437 0.21563238
-5.7512436 47.71455 0.28655064
-5.2667112 47.81118 0.20414481
-4.989913 47.764141 0.092796504
-6.6392794 48.306789 0.25510323
-6.3763218 48.184185 0.19983041
-5.7314129 48.317043 0.089969426
-5.4203167 48.173927 0.05110833
-8.0936613 48.749336 0.42292196
-7.8691854 48.951149 0.42267454
-7.0957727 48.989605 0.2513198
-6.7950077 48.623081 0.16835958
-6.1940861 48.774899 0.27645028
-5.8822412 48.729965 0.058156133
-7.5922518 49.295059 0.29217127
-7.3328171 49.292439 0.24959365
-6.6456881 49.294483 0.23462161
-6.351593 49.162914 0.11704421
-8.0505276 49.916397 0.24586606
-7.8120413 49.771194 0.20310885
-7.1592808 49.6982 0.31712145
-6.8807125 49.604736 0.27734593
-8.2313824 50.116631 0.20069417
-7.6368055 50.208866 0.33278543
-7.2253914 50.064213 0.07056123
-10.173036 50.59536 0.41942298
-9.8800735 50.936043 0.41899887
-8.5932131 50.697952 0.21170205
-8.1002903 50.791878 0.33061337
-7.8056841 50.606293 0.1537855
-9.6307516 51.063354 0.41888499
-9.3044395 51.305752 0.27391416
-8.7737103 51.267559 0.29866099
-8.2164745 51.016342 0.19546917
-10.109897 51.978115 0.23359206
-9.7673397 51.688061 0.23538888
-9.1833811 51.678165 0.2966727
-8.7935457 51.816399 0.16725516
-8.3875647 51.535843 0.056450427
-12.52999 52.171791 0.41614392
-12.293293 52.375057 0.41592795
-10.228291 52.170277 0.17104569
-9.6834412 52.185604 0.23332456
-9.1651258 52.20467 0.049587399
-150.73413 52.535885 0.2480762
-12.050146 52.557987 0.41574338
-11.723656 52.801487 0.41549468
-10.699462 52.756027 0.19812807
-10.096292 52.798939 0.22971785
-9.8163424 52.816963 0.11305144
-12.004346 53.218334 0.32003492
-11.696994 53.156826 0.3204743
-11.277661 53.269314 0.25292856
-10.754576 53.180077 0.22715443
-10.378019 53.271408 0.13250312
-14.668417 53.829651 0.41273528
-11.748074 53.845871 0.17470285
-11.225465 53.573467 0.2957496
-10.849134 53.652672 0.12932783
-14.280579 54.240009 0.412285
-13.938295 54.464378 0.41209126
-12.176392 54.345078 0.12277797
-11.71215 54.18222 0.028442532
-11.193225 54.071827 0.030366749
-17.521561 54.680466 0.41010422
-17.372335 54.863213 0.40990785
-14.089513 54.702271 0.3135187
-13.774478 54.87553 0.37873283
-12.736165 54.78162 0.11906165
-17.149551 55.146046 0.40959761
-16.825571 55.449741 0.40930307
-13.577128 55.173656 0.34530753
-13.239699 55.311504 0.1938546
-12.80174 55.330101 0.2139627
-12.44521 55.147175 0.018949747
-16.614908 55.811527 0.35808736
-16.417439 55.832222 0.4089261
-13.699982 55.641983 0.14482367
-13.271024 55.680138 0.11205301
-12.96763 55.609341 0.014032364
-19.704369 56.253494 0.40662485
-16.311707 56.201588 0.35748848
-14.740706 56.497406 0.10425702
-14.251842 56.148846 0.14094621
-13.827884 56.22599 0.10743803
-19.315355 56.704712 0.40616933
-16.105764 56.601063 0.30560148
-15.887753 56.668121 0.37377697
-15.160698 56.856236 0.10112593
-14.819781 56.86002 0.20385608
-14.280051 56.7089 0.069892526
-19.108448 57.193039 0.33551681
-18.884893 57.393799 0.35271522
-15.688892 57.281296 0.2004801
-15.325745 57.317657 0.26964489
-22.217331 57.75552 0.4029963
-21.890184 57.808929 0.40311021
-18.690889 57.700878 0.33456412
-18.400175 57.956715 0.29899406
-16.642225 57.845173 0.09180069
-16.304386 57.812149 0.092685521
-15.326483 57.516788 0.19995874
-21.701857 58.235619 0.34844917
-18.187786 58.325611 0.29805726
-16.829939 58.315823 0.14124152
-16.281097 58.177429 0.19539079
-21.57402 58.52726 0.29362196
-21.265656 58.788624 0.3584317
-18.107904 58.959034 0.081556499
-17.805832 58.797318 0.19018626
-17.299013 58.751289 0.1379481
-16.993994 58.705296 0.19178453
-24.670382 59.097313 0.28795135
-24.305157 59.239571 0.35492563
-21.069218 59.036495 0.2926437
-20.915438 59.249027 0.29216284
-18.284754 59.227951 0.18727982
-17.582634 59.154995 0.18872237
-24.139572 59.560738 0.28723842
-23.901438 59.735771 0.36168849
-20.685955 59.767082 0.2540783
-19.137421 59.991817 0.072673708
-18.708328 59.768528 0.11144298
-27.034693 60.463646 0.28058952
-26.656107 60.449341 0.33871809
-23.669527 60.172577 0.31406754
-23.481956 60.274521 0.39858237
-20.502861 60.039616 0.29017317
-20.270342 60.304676 0.1788694
-19.97909 60.405296 0.068147212
-19.299767 60.290771 0.14375427
-26.615389 60.657909 0.28058952
-26.377388 60.850895 0.35735947
-23.372349 60.769253 0.22784919
-20.006538 60.894184 0.17649898
-19.751266 60.630371 0.12259409
-26.207312 61.297207 0.25587493
-25.958834 61.41486 0.39540935
-23.110222 61.151627 0.16979256
-20.809721 61.410648 0.059808969
-20.441759 61.048096 0.062974066
-29.082092 61.749897 0.27380806
-28.865685 61.80875 0.39292353
-26.043777 61.650356 0.27836776
-25.870775 61.780926 0.23912746
-22.803257 61.618977 0.16816023
-21.66485 61.839703 0.16915986
-21.29957 61.76527 0.056405604
-28.707136 62.310902 0.27261406
-25.668913 62.190407 0.15997332
-25.455378 62.287716 0.15994805
-22.602114 62.053268 0.16647732
-22.304165 62.199188 0.097305954
-21.767281 62.046459 0.053512692
-31.58996 62.790428 0.20565122
-31.453321 62.935387 0.32811433
-28.557682 62.697258 0.21164861
-28.349596 62.884354 0.30141801
-25.21545 62.805584 0.11866
-23.025768 62.762794 0.045923203
-31.828966 63.103237 0.38900831
-31.265173 63.195053 0.2662043
-28.145298 63.214405 0.27072659
-25.254168 63.140656 0.097118467
-24.905025 63.371559 0.076947868
-23.723734 63.263435 0.041022331
-23.390076 63.055874 0.043166488
-34.174229 63.908108 0.19641146
-33.966183 63.951969 0.25984716
-31.161886 63.571487 0.20355204
-30.900761 63.784641 0.26495463
-28.058392 63.562397 0.088097751
-27.92635 63.85675 0.086843312
-24.652376 63.67281 0.036087453
-24.228548 63.573975 0.037789106
-33.793152 64.230331 0.25934497
-30.725512 64.239822 0.18105555
-30.426846 64.164627 0.38852137
-27.678864 64.135284 0.065707952
-36.528969 64.83213 0.25311542
-36.430359 64.865944 0.12327784
-33.615295 64.575661 0.13154581
-33.435863 64.716476 0.1947484
-30.574213 64.726662 0.13790542
-30.371162 64.819595 0.013080627
-27.302916 64.670372 0.022797287
-26.719286 64.862144 0.02318868
-26.39637 64.728561 0.024890363
-36.259354 65.272369 0.22620559
-35.993614 65.429718 0.3826623
-33.29343 65.214615 0.20239782
-30.304167 65.141518 0.073945373
-29.933714 65.352684 0.0111067
-27.069386 65.053871 0.021044552
-39.142998 65.891029 0.2792477
-38.769104 65.842621 0.24627674
-38.36113 65.821281 0.38025108
-37.743473 65.823547 0.38074589
-36.112659 65.781303 0.18556994
-33.243084 65.50544 0.12826338
-29.88022 65.826408 0.0083499849
-40.596096 66.369324 0.37767497
-39.971554 66.394852 0.37816194
-38.766441 66.253456 0.20061302
-38.217541 66.099915 0.37999189
-36.005798 66.020287 0.25056201
-35.855625 66.25161 0.16242558
-29.640228 66.206863 0.0066993237
-43.262917 66.975327 0.23525807
-42.934116 66.983429 0.23583841
-42.212894 66.858963 0.37565649
-41.741043 66.747032 0.21120694
-41.204372 66.563324 0.37690526
-40.371223 66.522591 0.37765926
-38.596867 66.716782 0.10963729
-35.50592 66.706154 0.38128781
-44.587105 67.433838 0.23154402
-44.162762 67.310875 0.2326715
-43.637142 67.266678 0.30391049
-43.141132 67.260551 0.37432915
-42.732281 67.146675 0.37483183
-41.521393 67.042313 0.10045078
-41.447353 67.338715 0.1684413
-38.747101 67.023735 0.24311733
-38.363678 67.277153 0.17543784
-45.931396 67.880005 0.22779676
-45.250561 67.648941 0.22971183
-44.23035 67.744614 0.23103523
-41.311447 67.743805 0.098021269
-38.22094 67.549614 0.24240822
-37.986755 67.831017 0.37783206
-47.385677 68.439659 0.2235024
-46.946182 68.32235 0.22466305
-45.572987 68.334969 0.37079486
-45.029026 68.046745 0.37165096
-44.242809 68.136185 0.088277966
-41.122917 68.247108 0.14281362
-48.374031 68.911964 0.14678439
-47.873219 68.61972 0.22207648
-47.132023 68.784241 0.077294648
-46.981766 68.842056 0.36887848
-44.066612 68.901306 0.085544825
-43.620419 68.536995 0.23028386
-41.068211 68.726425 0.23429641
-37.650974 68.892899 0.3766461
-49.800037 69.455978 0.066640317
-49.266823 69.233345 0.069145709
-48.842445 69.42556 0.36643589
-48.368298 69.274162 0.36706421
-47.039555 69.160767 0.076003999
-43.824722 69.212578 0.15654033
-37.546459 69.267296 0.37621415
-37.345047 69.471344 0.37608847
-50.869957 69.888565 0.061654806
-50.326481 69.663681 0.064210832
-49.16172 69.594505 0.067981601
-51.794926 70.413773 0.20957467
-51.290302 70.317307 0.16015953
-50.503613 70.174454 0.36394617
-49.633236 70.006912 0.3649672
-46.466667 70.399757 0.072486281
-40.242329 70.33448 0.30193651
-53.187614 70.916916 0.050418377
-52.586334 70.640793 0.053379327
-51.594776 70.621193 0.36235964
-51.119736 70.769249 0.2862128
-50.63028 70.894119 0.21060267
-43.264206 70.633011 0.22507757
-54.110001 71.398842 0.20231235
-53.741413 71.27932 0.12521824
-52.952019 71.394257 0.36010557
-52.348576 71.111397 0.36103234
-49.361813 71.420517 0.059883237
-43.236759 71.13456 0.22371796
-55.142826 71.898087 0.040422052
-54.80267 71.876022 0.12077597
-53.943691 71.660988 0.35882536
-53.478992 71.570587 0.35938299
-46.171799 71.555305 0.068462431
-55.591286 72.264778 0.19702312
-55.376411 72.472305 0.35643774
-54.793346 72.242378 0.35728598
-56.884281 72.859657 0.19281164
-56.342136 72.697159 0.19435361
-48.596664 72.720039 0.056707203
-56.944408 73.419716 0.35374379
-56.240471 73.05233 0.35488266
-57.771919 73.689384 0.27081507
-51.316742 73.63131 0.045027912
-49.842785 73.709877 0.049001187
-58.649536 74.253586 0.2684353
-50.758884 74.260063 0.20128435
-50.487659 74.383087 0.35858971
-59.456982 74.967262 0.34937698
-60.412018 75.109505 0.17964661
-52.334938 75.350616 0.35567588
-61.316689 75.672226 0.17629734
-60.393829 75.584129 0.34769621
-62.226032 76.229523 0.172948
-61.218124 76.052551 0.34630606
-62.346458 76.877907 0.34417763
-63.432842 77.129639 0.1680899
-53.444729 77.475388 0.35194522
-64.485123 77.831444 0.1640608
-63.38834 77.584999 0.34227693
-64.41983 78.266602 0.34041554
-58.165607 78.283493 0.17601544
-65.569046 78.557259 0.15989906
-66.743538 79.375053 0.15530622
-65.540894 79.041115 0.33834994
-66.797966 79.960899 0.33597019
-68.222198 80.529709 0.14920455
-68.332703 81.187622 0.33293855
-69.824684 81.806946 0.14252257
-70.079666 82.638992 0.32941994
-71.743568 83.4235 0.13429856
-71.804741 84.041435 0.32597989
-74.227425 85.653381 0.12330559
-74.556252 86.590294 0.32012078
-88.359787 93.492737 0.072419554
-86.060013 94.323418 0.075652808
-85.70031 94.880547 0.29873431
-85.33876 94.858833 0.075967848
-87.708138 95.432724 0.06923613
-85.078339 95.21508 0.18738732
-84.641068 95.418449 0.076150239
-84.75621 95.503845 0.2990092
-84.232567 95.825943 0.22487763
3.3943312 -164.80652 0.81734592
4.5468178 -164.71577 0.81721151
-55.011719 -143.61177 0.52698207
-54.429352 -143.60107 0.52694368
-53.444477 -143.05106 0.79470092
-51.19582 -143.1393 0.79335701
-50.690716 -143.3112 0.79333782
-53.591591 -142.91519 0.52677959
-48.943096 -141.00943 0.5261879
-38.481304 -121.22614 0.74562913
-38.389942 -120.44642 0.52219713
-35.023731 -120.03612 0.5219537
-39.787674 -119.51737 0.74330604
-39.274105 -119.65339 0.85389686
-39.797058 -119.07073 0.52204704
-37.329792 -119.09678 0.74105984
-34.607132 -119.16879 0.73964876
-38.992687 -118.06588 0.52183586
-38.480812 -118.38988 0.74045509
-1.5977166 -117.11494 0.72594583
-1.2424629 -117.24185 0.93152279
-32.439457 -115.42147 0.94209677
-25.525023 -113.5647 0.92912197
-1.967926 -113.5146 0.91792488
-25.825323 -113.05779 0.92756426
-27.155102 -112.67426 0.72384822
-2.340678 -112.64893 0.91479117
-26.193933 -112.19059 0.72240549
-2.4859619 -112.29002 0.71659124
-3.1018903 -111.83837 0.91191399
-41.044117 -111.12341 0.52081478
-41.489262 -110.36034 0.72787994
-39.352051 -110.12959 0.52054948
-38.955448 -110.24156 0.52054429
-42.379204 -109.96702 0.52071005
-41.612347 -109.53061 0.7264784
-40.695782 -109.89655 0.93242061
