# .PCD v0.7 - Point Cloud Data file format
VERSION 0.7
FIELDS x y z intensity
SIZE 4 4 4 4
TYPE F F F F
COUNT 1 1 1 1
WIDTH 1224
HEIGHT 1
VIEWPOINT 0 0 0 1 0 0 0
POINTS 1224
DATA ascii
-56.47691 76.323242 -0.64609498 72
-64.764847 76.909889 -0.68421263 1
-63.586246 76.804352 -0.852507 60
-60.255474 76.512352 -0.83266634 60
-63.403484 77.130135 -0.85366154 54
-65.898865 77.813065 -0.78279966 2.5
-59.55048 77.606796 -0.66566432 14
-66.379875 78.053146 -0.5184679 1
-62.943352 78.226135 -0.85845065 2
-59.424648 78.005096 -0.6672979 6
-67.526848 78.842476 -0.52527553 1
-67.234352 78.830261 -0.79526293 8
-65.966393 78.556396 -0.87705129 54
-61.995453 79.177307 -0.77212405 2
-68.97731 79.969254 -0.5343861 2
-68.246925 79.565292 -0.89625055 4
-69.805412 80.809792 -0.91301244 4
-70.524994 81.188782 -0.54417998 2
-64.391502 81.302086 -0.5247947 117
-71.504677 82.195251 -0.93148482 2
-72.299278 82.646828 -0.55564415 2
-72.785881 83.435204 -0.75347114 1
-69.572319 83.440453 -0.92887646 4
-74.696045 84.787521 -0.5717901 4
-75.188644 85.58461 -0.7752527 2
-78.007881 87.926018 -0.59479433 6
-79.8535 90.257133 -0.82010907 1
-91.585838 91.265938 -0.87990624 1
-91.407867 91.726723 -0.88126755 6
-90.799057 92.141823 -0.65462041 1
-90.742798 92.858063 -0.77008116 2
-90.654083 93.546982 -0.88650864 2
-87.021233 94.041992 -0.64836955 1
-86.733765 94.190689 -0.75964719 3.5
-86.254738 94.52903 -0.64755976 2
-85.688271 94.832268 -0.86979818 1
-88.927185 95.431267 -0.66008675 8
-85.233734 95.327942 -0.87024063 3
-87.505516 96.574669 -0.65947944 3
-87.592598 97.351562 -0.66269338 2
-87.528755 97.966202 -0.66479397 6
-50.995144 -159.5103 -0.26300618 60
-63.384315 -159.04338 -0.2688888 9
-49.865749 -157.8756 -0.26002166 2
-49.044777 -157.18475 -0.25860009 62
-55.298363 -146.11987 -0.24536614 27
-54.889999 -143.52553 -0.24132918 58
-56.564281 -143.38472 -0.24207532 3
-55.314968 -143.13718 -0.24099933 60
-55.836098 -142.99911 -0.24109358 53
-51.22234 -142.8316 -0.23830539 49
-50.643223 -142.78334 -0.23792842 53
-51.662655 -142.49213 -0.23803836 44
-48.079823 -131.1801 -0.21941659 78
-47.699387 -131.47253 -0.46369299 82
-2.038836 -124.08134 -0.41143095 2
-2.0087278 -123.92734 -0.19464515 4
-1.1696676 -123.78757 -0.41041952 27
-39.294662 -121.40501 -0.31180221 32
-39.568737 -120.85598 -0.19971097 71
-36.274551 -120.69012 -0.1979124 71
-35.819893 -120.60624 -0.41711807 72
-40.99601 -119.54446 -0.19847003 9
-39.543789 -119.36917 -0.19748043 53
-39.86647 -118.95071 -0.19701704 36
-38.888577 -118.68954 -0.41408384 58
-40.085762 -118.19055 -0.30477768 61
-39.70351 -118.37723 -0.41395119 44
-39.249153 -118.39172 -0.4135201 65
-37.640072 -117.64854 -0.40952417 60
-37.220127 -117.7506 -0.40942469 20
-3.0875487 -115.70744 -0.18177247 1
-41.294891 -110.28065 -0.18492977 9
-40.812412 -110.16157 -0.18448995 74
-40.447124 -110.27972 -0.3894285 75
-27.084639 -107.60223 -0.17424837 49
-26.021852 -106.51612 -0.17219061 78
-25.62649 -106.50908 -0.17203353 72
-28.330587 -106.26183 -0.17270114 65
-27.922619 -106.12113 -0.36379486 27
-25.226879 -106.48112 -0.17184503 69
-36.656303 -105.6872 -0.17566994 71
-31.353407 -105.65466 -0.17307027 53
-29.330671 -105.55948 -0.17204925 62
-28.774305 -105.69937 -0.17202961 73
-28.260654 -105.90224 -0.36338037 53
-24.708519 -105.94039 -0.17083187 49
-30.838205 -105.26443 -0.17225344 62
-30.420881 -105.10946 -0.36276689 65
-28.869673 -105.22984 -0.36175546 8
-28.496954 -105.31066 -0.36168915 56
-29.559345 -104.96075 -0.17124029 67
-74.014549 -103.60638 -0.422142 44
-73.171448 -103.95293 -0.42146218 53
-36.475525 -103.99219 -0.1730624 3
-28.842989 -103.71216 -0.35688078 58
-73.238869 -103.28087 -0.41977099 56
-29.677021 -103.25819 -0.26247796 66.5
-29.30901 -103.33467 -0.26235187 65.5
-40.882607 -102.51704 -0.36590061 8
-35.678551 -102.79231 -0.36072749 2
-41.162842 -102.24906 -0.17309383 56
-35.936138 -102.37935 -0.35971606 20
-31.071035 -102.08488 -0.16757248 8
-31.208042 -101.85445 -0.26024133 67
-30.677416 -101.98411 -0.35306725 14
-22.770828 -101.63383 -0.16355909 56
5.7979469 -101.8433 -0.33817786 2
-26.174307 -101.00226 -0.1638497 49
-25.83621 -101.05269 -0.34578836 62
2.9290245 -101.17081 -0.33554155 6
-25.066265 -100.9734 -0.34490958 44
-23.742107 -100.89473 -0.34362459 56
-23.159815 -100.838 -0.25276959 30
-22.800594 -100.83246 -0.34272096 58
-22.426773 -100.81382 -0.34238935 62
-21.645491 -100.72408 -0.1617841 56
-21.307775 -100.74963 -0.34139448 53
5.0557251 -100.78691 -0.15846971 27
-6.8599262 -99.557159 -0.33083266 14
-9.5589094 -98.762138 -0.15581508 49
-9.2103901 -98.755066 -0.15575224 44
-8.7127142 -98.891457 -0.2425051 24.25
-8.2034311 -98.898582 -0.32899222 14
5.6023583 -98.003639 -0.15415002 1
-90.324234 -95.044594 -0.43471009 44
4.9660621 -95.418526 -0.48346809 3
-90.503662 -94.611755 -0.20561714 87
4.2761674 -94.926407 -0.48081082 1
-5.873806 -87.951843 -0.44601348 2
-5.4268718 -87.675484 -0.29120502 4
-4.0072808 -87.546104 -0.44343215 2
-3.8861475 -87.537071 -0.29047549 2
-21.604065 -87.114769 -0.14093964 87
-21.160942 -87.236511 -0.34975919 52
-4.472146 -87.434357 -0.13747603 20
7.9932694 -86.625656 -0.13660423 1
-7.1495261 -86.443504 -0.13620369 49
8.4934311 -85.728584 -0.28558421 1
-6.3004098 -85.177147 -0.2830337 27
-18.046896 -84.752663 -0.43844664 9
-6.7126813 -84.763275 -0.13351764 14
-6.442379 -84.849068 -0.28208569 49
-4.3550982 -84.741463 -0.28128982 4
-5.012382 -83.853142 -0.42503384 36
-4.666256 -83.950958 -0.3520444 5.5
-17.333822 -82.753944 -0.28031275 93.666664
-15.108409 -82.791046 -0.27898514 9
-14.843969 -82.981079 -0.27944937 58
-17.030296 -82.034569 -0.13156198 69
-16.845432 -82.199707 -0.35138512 42.5
-15.320921 -82.383469 -0.20466706 36
-17.763893 -81.951698 -0.27799061 72.333336
-16.630903 -81.539909 -0.13067448 85
-16.379944 -81.661743 -0.2761001 81
-15.70573 -81.758102 -0.27564329 28
-15.469859 -81.543869 -0.27513844 36
-13.112922 -81.611916 -0.12979484 8
-15.777528 -81.174339 -0.17802365 20.666666
-16.232365 -80.689171 -0.2730903 38.5
-15.909312 -80.776512 -0.27291662 75
-7.6962891 -79.626671 -0.4047628 76.5
-14.486566 -79.494476 -0.12688102 79
-13.721855 -79.191521 -0.266518 35.666668
-13.341107 -79.032455 -0.33564794 4.5
-8.1628666 -79.336914 -0.26425898 40
-7.9770584 -79.42894 -0.19499227 40.5
-13.524878 -78.892754 -0.12568721 6
-13.153281 -78.818253 -0.26510936 4.5
-12.807911 -78.710457 -0.26435274 5
-12.194595 -78.778534 -0.17156769 92.666664
-11.741459 -78.650505 -0.29143697 60
-9.8141289 -78.559608 -0.40057448 65
-9.1999025 -78.619179 -0.26240891 66.75
-12.888664 -78.467194 -0.12486254 4
-12.345318 -78.458008 -0.26328331 79
-11.338767 -78.483032 -0.40121979 60
-10.736392 -78.329681 -0.22771318 42.5
-10.237993 -78.453194 -0.19326614 35.5
-8.759409 -78.407982 -0.26170382 48.5
-11.13115 -77.801094 -0.26053092 8
-10.815301 -77.522537 -0.25946975 9
11.706187 -77.594841 -0.39704412 3
-11.190559 -77.391174 -0.12278517 75.5
-10.912669 -77.44281 -0.39570284 65
11.919734 -77.182907 -0.3951461 3
12.121181 -76.711166 -0.39294434 4
12.311505 -76.189606 -0.39048958 6
-4.8768153 -71.031456 -0.11179353 1
-20.099098 -70.560432 -0.49920568 1
-5.7138715 -70.692207 -0.3589083 1
-5.1193309 -70.939201 -0.11167572 1
-4.6949553 -70.874367 -0.27694714 1
-4.4880471 -70.92112 -0.35953888 1
-6.7008815 -70.084991 -0.31535447 2
-6.4201317 -70.260284 -0.35695758 1
-4.0839291 -70.240051 -0.11047406 1
-3.7627621 -70.05983 -0.23256302 1
-7.7467895 -69.619156 -0.30551493 1.4
-3.3136351 -69.554794 -0.10933523 1
-159.67104 -69.330803 -0.27338913 67
-16.623642 -69.244789 -0.48453718 1
-16.200451 -69.072754 -0.4827334 1
-15.806086 -69.015434 -0.48174644 1
-9.6973724 -69.00412 -0.47412288 2.5
-9.0163279 -69.223282 -0.35318682 8
-8.6803398 -69.271637 -0.23141539 3
-8.3233471 -69.365692 -0.23158121 1.5
-3.0393221 -69.236313 -0.29013735 1
-2.7371516 -69.205215 -0.31586012 1
-15.155573 -68.811035 -0.35657173 2
-14.74242 -68.769844 -0.47854728 1
-14.487845 -68.752396 -0.4780708 1
-13.673706 -68.924744 -0.35551506 1
-13.319563 -68.777054 -0.41559914 1
-12.785386 -68.843216 -0.35426235 1
-12.215761 -68.701393 -0.30435067 4.1999998
-11.636107 -68.800125 -0.4747695 2
-11.234592 -68.905273 -0.41409206 1.5
-10.817829 -68.916519 -0.3529464 2
-2.2773411 -68.752182 -0.22814965 0.66666669
-1.9398085 -68.54557 -0.34693593 1
-2.0599856 -68.30262 -0.1072932 1
-1.6989664 -68.220932 -0.27393451 0.80000001
-1.5404319 -67.904877 -0.46214303 1
-1.2972416 -67.705658 -0.28349203 0.75
-1.057851 -67.374046 -0.45846739 1
-0.81859082 -67.285027 -0.22306786 1
-0.59950376 -66.89283 -0.2802034 1
-0.26117277 -66.670143 -0.22090009 1
0.075128652 -66.230988 -0.16194406 0.5
0.98274738 -65.666054 -0.21768665 1
0.89739788 -65.379303 -0.27407473 1
1.1709311 -65.197365 -0.32987779 0.75
5.5677419 -65.31179 -0.10291853 20
1.3434067 -64.862785 -0.27171791 1
1.6938701 -64.559471 -0.21406926 1
1.9253119 -64.21418 -0.28766677 0.66666669
2.1908603 -64.110893 -0.21262959 1
2.2651508 -63.822777 -0.2954613 0.75
2.5576346 -63.598629 -0.21098264 1
2.736088 -63.255497 -0.24677026 0.66666669
3.0598454 -63.038868 -0.3193005 1
2.8432307 -62.938808 -0.26389211 1
3.2194309 -62.723797 -0.2812506 0.66666669
3.4112461 -62.465286 -0.20740028 1
3.7556515 -62.165081 -0.20642844 1
3.8584018 -61.800766 -0.097220466 1
4.1565642 -61.648457 -0.20480354 1
11.806323 -61.556442 -0.20775488 1
10.107428 -61.193993 -0.31378356 1
10.302835 -60.748398 -0.20456716 2.5
5.3140583 -59.863289 -0.094357692 1
10.649399 -59.950169 -0.095598616 4
5.778841 -59.227345 -0.093430921 1
11.605799 -59.390076 -0.20057549 1
13.068457 -59.080597 -0.09500172 1
6.201333 -58.771076 -0.15474084 1
11.649995 -58.530281 -0.19780652 3
12.324617 -58.622147 -0.094051391 1
12.683765 -58.798611 -0.094440162 1
6.3277302 -58.037762 -0.49905249 9
6.6085734 -58.261246 -0.26252446 1
11.907004 -58.228401 -0.19699407 2.5
6.7328968 -57.806362 -0.22672085 5.1666665
6.7980165 -57.456802 -0.29273582 27.5
7.1537833 -57.289528 -0.24174803 0.75
6.896925 -56.809517 -0.4891749 61.5
7.2757978 -56.831978 -0.16503705 1
7.5966334 -56.505093 -0.18896908 1
7.3171024 -56.303883 -0.36135796 34
7.6142616 -56.187569 -0.24713516 1.6
7.4739943 -55.848885 -0.48164916 71
7.7929726 -55.746521 -0.2846733 23
8.1029243 -55.689175 -0.28469294 1
11.451308 -55.676315 -0.4858824 4
11.740273 -55.708942 -0.38733706 27
7.9233012 -55.246895 -0.42841983 51
8.1292343 -55.285271 -0.1365367 1
10.525471 -55.059753 -0.47916907 73
8.2593651 -54.799824 -0.34932327 36.857143
8.5926943 -54.690907 -0.15140998 0.66666669
9.4682894 -54.688217 -0.47442269 6
9.7784328 -54.77066 -0.47557724 9
10.210104 -54.969013 -0.47790766 45
8.3942814 -54.221626 -0.37328118 65.5
8.8007088 -54.267757 -0.29404011 24
9.1036301 -54.170456 -0.32590622 37.5
8.7902184 -53.728497 -0.27515534 47.666668
9.2212248 -53.62635 -0.18034716 1
8.9135475 -53.261959 -0.36739334 69
9.226037 -53.231998 -0.24966195 17.5
12.958571 -53.155891 -0.37222612 36
13.184879 -53.275356 -0.37338325 20
9.3698158 -52.816387 -0.3337402 41.333332
9.6121893 -52.741383 -0.14656119 1
11.590952 -52.62038 -0.46056846 71
9.7205257 -52.280785 -0.24573684 19.875
10.512441 -52.030521 -0.45372686 58
9.9179869 -51.863636 -0.17476359 29.5
10.134298 -51.794708 -0.28557429 40
-13.039135 -51.054939 -0.08272595 20
10.262336 -51.238266 -0.1732491 31
10.456643 -50.823906 -0.17202605 33
10.551191 -50.599857 -0.26147363 65
12.833539 -50.797146 -0.26504195 4
14.131224 -50.685162 -0.26618078 36
14.57695 -50.907322 -0.26787636 6
-13.149577 -50.278828 -0.20244117 36.333332
-12.595699 -50.147369 -0.35188958 54.5
-12.403394 -50.204887 -0.44203198 31
10.871136 -50.041256 -0.169719 1
12.736344 -50.208981 -0.3523722 51
-12.583171 -49.799442 -0.28964072 47.333332
-2.5535975 -49.749374 -0.38234317 56
-2.4207346 -49.809574 -0.20874242 34
10.934698 -49.822414 -0.25803187 20
11.127338 -49.642487 -0.34620979 54.333332
11.694094 -49.617714 -0.39128572 34
11.418938 -48.851585 -0.16627023 14.5
12.009362 -48.972233 -0.25507092 4
11.595896 -48.380424 -0.25166711 5
15.655459 -48.020977 -0.16739771 27
11.795813 -47.820141 -0.16323598 60
13.869842 -47.806927 -0.25180629 2
15.163811 -47.750969 -0.20956142 27
11.850406 -47.270939 -0.076505601 1
12.056342 -47.343918 -0.3283056 42.5
12.935783 -47.031742 -0.24674487 76
13.495146 -47.373089 -0.33509541 20
13.817787 -47.412159 -0.37449223 13
11.953716 -46.987 -0.076112904 2
12.223563 -46.887005 -0.30022156 36.666668
12.674481 -46.868958 -0.35547069 56.666668
0.17906873 -46.036797 -0.39347792 58
12.387881 -46.283894 -0.21480723 39.333332
12.596121 -46.138184 -0.4464089 50
-0.21136983 -45.719135 -0.30943173 24.200001
12.738646 -45.122375 -0.11452268 45
14.873606 -45.088631 -0.15734987 65
12.851439 -44.798809 -0.17513114 49
13.327901 -44.547485 -0.15410006 58
13.881334 -44.565998 -0.31753403 73
14.160046 -44.663071 -0.35809323 43.333332
14.956018 -44.913696 -0.19816664 67.5
12.936633 -44.38871 -0.2342151 42.5
13.260585 -44.326733 -0.38157266 30.714285
13.645558 -44.445427 -0.26765567 64.599998
14.22893 -44.051842 -0.31491345 36
13.177174 -43.718437 -0.071679339 39
13.286616 -43.259262 -0.07103923 67
13.636158 -42.284336 -0.06974332 8
14.977029 -42.007122 -0.38116306 44
15.288638 -42.066959 -0.35382965 38.666668
13.907009 -41.869438 -0.06925638 34
14.263371 -41.810596 -0.14622937 46
14.76358 -41.878941 -0.42598864 60
15.040731 -41.967735 -0.45101854 58
15.77136 -39.535378 -0.23661463 62.285713
16.067125 -39.559147 -0.32579488 60.5
14.463548 -39.098476 -0.28356844 8
14.742908 -39.23159 -0.3667846 47.666668
15.2226 -39.325134 -0.25227389 54
15.746273 -39.274368 -0.21280012 32.111111
13.465566 -38.507217 -0.064033486 2
14.287588 -38.622303 -0.27989978 27
14.578561 -38.757694 -0.35397637 36.333332
15.952366 -38.803928 -0.31819692 21
11.506631 -38.055828 -0.33977133 9
12.390199 -38.133884 -0.22587521 3.3333333
12.972897 -38.088512 -0.34392655 5.5
13.247136 -38.218578 -0.25107813 11.666667
13.76416 -38.220993 -0.27410746 3.3333333
14.346043 -38.368679 -0.27863353 1
15.497759 -38.215843 -0.064732485 6
-1.2804369 -37.767925 -0.22297782 53.666668
9.8279114 -37.528667 -0.23006639 7.5
10.375799 -37.647457 -0.28834486 11.333333
10.654535 -37.707012 -0.19818041 6
11.114067 -37.821442 -0.18034916 4.75
11.84178 -37.90839 -0.30268058 10
12.147476 -37.797707 -0.40161958 7
12.645228 -37.601486 -0.16600725 10
13.229403 -37.740265 -0.16728248 8
13.668957 -37.866264 -0.20346314 4.5
14.773431 -37.503052 -0.27417514 1
7.9208446 -37.057217 -0.27970222 17.333334
8.2688246 -37.133896 -0.22531544 9.5
8.6717148 -37.219151 -0.225425 11.833333
9.3721867 -37.372494 -0.31255162 7
9.7223482 -37.437572 -0.26092985 8.666667
11.857516 -37.279736 -0.3573235 6.3333335
12.310621 -37.289936 -0.3664788 7
12.668771 -37.213081 -0.26738542 7
13.092409 -37.223026 -0.19957231 8
13.677109 -37.181164 -0.21429327 28
14.033134 -37.162025 -0.16633841 59
15.205212 -37.216007 -0.34357697 49
15.557927 -37.239452 -0.063350186 14
16.419378 -37.097504 -0.06368006 27
16.831112 -37.148621 -0.064017773 54.5
17.193344 -37.009422 -0.34906402 46
17.799124 -37.083759 -0.49504629 54.333332
6.7770944 -36.783615 -0.45010778 14
7.2142048 -36.873005 -0.35056186 14.25
7.6666503 -36.806023 -0.25571755 11.333333
11.353478 -36.509113 -0.060012244 44
11.788498 -36.632244 -0.26232627 21.666666
12.230884 -36.67918 -0.34693027 31.727272
12.702835 -36.792542 -0.29685998 50.375
13.243899 -36.91692 -0.19824632 42
13.616899 -36.975838 -0.16492434 31
15.272316 -36.658283 -0.24843407 52.882355
15.767122 -36.715721 -0.25997597 57.421051
16.253716 -36.784519 -0.28889292 53.666668
16.727177 -36.851788 -0.32953715 60.857143
17.264334 -36.957344 -0.49091172 67
8.7509489 -36.107162 -0.31749335 1
9.7266979 -36.06356 -0.17025578 37.142857
10.203868 -36.163292 -0.29296377 31.299999
10.821186 -36.292519 -0.29585612 27.200001
11.211329 -36.413353 -0.24104293 34.5
15.472148 -36.488598 -0.20045806 54
15.581709 -36.393002 -0.20023029 36
16.729818 -36.44733 -0.13289349 9
7.4332514 -35.507801 -0.31001034 4
7.7280703 -35.556221 -0.27919593 43.5
8.249135 -35.680744 -0.26744825 27.428572
8.7419214 -35.824013 -0.21684961 23.299999
9.1550665 -35.914551 -0.2520873 53
9.5973396 -35.975697 -0.31595197 58
6.7803221 -35.302696 -0.49528739 61.5
7.2552481 -35.4132 -0.40028113 40.5
7.618679 -35.488392 -0.36715168 6
15.847175 -34.970276 -0.19418187 3
19.164436 -34.517792 -0.47513604 6
15.815865 -34.127182 -0.22235405 43.599998
16.283274 -34.095207 -0.23067077 60.46154
16.753397 -34.124611 -0.27040505 57.761906
17.186708 -34.181507 -0.29765195 61
17.681911 -34.290001 -0.42730555 54.833332
18.246002 -34.403 -0.46864817 52
18.794481 -34.415024 -0.47190467 28.333334
15.88783 -33.962444 -0.24065766 46.599998
16.127777 -33.969929 -0.20197988 50
16.801407 -33.884407 -0.059364296 60
16.137316 -33.299412 -0.12261351 20
16.533279 -32.909046 -0.057805277 54
15.993013 -31.593285 -0.17923342 55.5
16.183676 -31.571461 -0.21040435 55.5
16.83926 -31.526789 -0.23331571 68.714287
17.295876 -31.534071 -0.23716664 57
17.667553 -31.542353 -0.28130209 50.400002
18.279036 -31.60984 -0.43941006 43.666668
18.751734 -31.657585 -0.44278193 59.333332
19.083889 -31.711775 -0.44539115 58
19.564415 -31.752811 -0.44882324 53
16.235865 -31.39106 -0.1710082 64
16.734522 -31.464006 -0.20997739 59
17.209158 -31.477985 -0.16583538 65
16.335245 -29.134558 -0.38262653 65.333336
16.702055 -29.056833 -0.36040196 53.333332
19.395311 -29.003004 -0.4807069 20
19.543924 -29.005615 -0.48187888 14
16.327726 -28.777164 -0.15194766 55
16.783047 -28.807758 -0.19557892 69.947365
17.251467 -28.793274 -0.19822526 64.181816
17.67712 -28.813419 -0.19725378 56.153847
18.187983 -28.898108 -0.38118795 18.5
18.799995 -28.910614 -0.39774409 41.125
19.205509 -28.946848 -0.42711151 49.166668
19.747482 -28.942377 -0.45220003 27.833334
20.144569 -28.870859 -0.45429873 19.666666
20.191658 -28.233183 -0.47822511 30
20.181404 -27.704271 -0.47222748 20.5
-15.198016 -27.014921 -0.37295565 1.6666666
-14.894108 -27.024012 -0.37126964 3
-13.536669 -27.060825 -0.25852725 3
-13.251749 -27.057209 -0.25299865 7.1428571
-12.782168 -27.122444 -0.19966747 4.9166665
-12.321716 -27.06431 -0.2933737 22.307692
-11.752314 -27.125774 -0.082511321 36.099998
-11.237453 -27.189762 -0.25366107 29.470589
-10.965221 -27.179625 -0.42928612 33
-3.6633668 -27.170601 -0.33014569 40.25
-16.676979 -26.822683 -0.46266699 5.6666665
-16.234779 -26.899469 -0.44194436 3.6666667
-15.517283 -26.96958 -0.48291492 1
-15.29291 -26.947887 -0.41600594 1.4
-14.901043 -26.962263 -0.4243843 1
-13.22331 -26.868427 -0.1610858 6.5999999
-12.752311 -26.828848 -0.29598609 2.75
-12.428921 -26.985708 -0.30566633 8.666667
-10.697033 -26.709503 -0.49669641 3.5
-10.253974 -26.649031 -0.3427355 33.583332
-9.8831587 -26.8242 -0.49350002 39.5
-3.2863088 -26.826172 -0.11263525 2.75
-2.8306217 -26.732626 -0.13485543 2.25
15.851334 -26.665977 -0.4544003 56.75
16.269781 -26.543543 -0.37460145 43
-12.788965 -26.146605 -0.38756308 8.375
-10.651649 -26.353809 -0.12504499 1.125
-10.293489 -26.350443 -0.32936805 1.4
-9.8436203 -26.014538 -0.48015282 1
-3.0526764 -26.217142 -0.37774214 49.666668
-2.1146448 -26.233215 -0.28977218 1.5714285
-1.5826904 -26.181547 -0.36701837 3.8571429
-1.428332 -26.283897 -0.48488912 3.6666667
16.374624 -26.241499 -0.16354601 58.92857
16.746416 -26.176458 -0.18079977 59.909092
17.271069 -26.172882 -0.1692867 58.400002
17.736738 -26.159622 -0.19490108 46.849998
18.234209 -26.18508 -0.28874201 49.777779
18.715628 -26.173288 -0.34003323 38.5
19.274933 -26.153576 -0.39605564 39.222221
19.792564 -26.164816 -0.42339793 30.333334
20.164318 -26.134304 -0.42022657 33.799999
-10.092417 -25.591385 -0.3046186 1
-9.8742552 -25.560547 -0.45709023 1.6666666
-3.5065527 -25.889223 -0.40540621 98
-3.2642441 -25.88563 -0.37850055 76.14286
-2.8998566 -25.9081 -0.34606937 0.71428573
16.529516 -25.945126 -0.20920488 67
20.254257 -25.795637 -0.43748268 16.25
-10.679874 -25.362888 -0.067174792 4.5
-10.215911 -25.356052 -0.29542869 4
-9.888298 -25.32789 -0.46935415 2
-4.0128345 -25.015903 -0.39313531 73
-3.7176433 -25.182415 -0.41403726 70.571426
-3.4240227 -25.478996 -0.19499004 1
20.253342 -25.215673 -0.44557133 14.666667
-12.853854 -24.563654 -0.14017639 0
-12.200905 -24.554316 -0.13863266 1
-11.816875 -24.503027 -0.090115547 1
-11.153912 -24.544504 -0.10496118 30
-10.729812 -24.549133 -0.27076849 25
-10.383533 -24.557526 -0.43701285 1
-4.6962252 -24.587721 -0.45632246 94.666664
-4.274085 -24.801189 -0.43164936 70.9375
1.6278099 -24.668344 -0.29597309 48.333332
20.224895 -24.748287 -0.48209187 39
-17.266729 -24.007494 -0.046406537 82.666664
-16.649639 -24.185474 -0.27609852 90.599998
-16.24267 -24.184929 -0.242856 90.945946
-15.748808 -24.222761 -0.22407244 75.147057
-15.264716 -24.259108 -0.24176033 78.162163
-14.772775 -24.300339 -0.18788679 89.516129
-14.220262 -24.327593 -0.13936797 86.842102
-13.753531 -24.334999 -0.18950598 75.333336
-13.222879 -24.352322 -0.22138016 82.916664
-12.800323 -24.386335 -0.21907149 23
-12.26434 -24.39887 -0.23011772 28
-11.865102 -24.444658 -0.24789335 0.66666669
-11.17417 -24.453064 -0.10774426 71
-10.748707 -24.432171 -0.3095879 80.384613
-10.410517 -24.494213 -0.45941937 84
-6.2288399 -24.079706 -0.47268835 37
-5.7197285 -24.191137 -0.4724189 100.5
-5.2123346 -24.371149 -0.45624557 69.800003
-4.9438105 -24.477188 -0.44553313 82.333336
1.0081832 -24.083443 -0.45807242 3
1.5107584 -24.032103 -0.45759687 53
20.204378 -24.348915 -0.49106964 9
-16.863785 -23.973005 -0.045995515 85.666664
1.360973 -23.76334 -0.37805012 33.400002
1.5949522 -23.767487 -0.46637201 17
2.1950493 -23.642035 -0.25347671 4.5
16.245522 -23.641094 -0.082550585 56.5
16.734587 -23.527391 -0.095740609 60.57143
17.244759 -23.517887 -0.14778684 63
17.551065 -23.533226 -0.29689988 4
19.782778 -23.672073 -0.47879872 36
20.078577 -23.688684 -0.48195705 9
1.2709695 -23.197971 -0.38160914 53.695652
1.6568474 -23.209961 -0.31751651 33.866665
2.1960838 -23.235481 -0.31747797 36.217392
16.358767 -23.472546 -0.10905333 52.57143
16.778879 -23.482862 -0.15504676 68.727272
17.273922 -23.45857 -0.14163086 66.555557
17.754864 -23.441132 -0.19136727 50.75
18.289108 -23.430426 -0.25705776 59
18.739388 -23.408241 -0.29886931 50.076923
19.242905 -23.388487 -0.34072122 41.583332
19.728647 -23.337793 -0.36594462 35.75
20.117359 -23.211184 -0.41122064 17.222221
1.2538326 -22.680996 -0.17414498 2.5
20.098515 -22.745722 -0.41813511 29.125
1.2716664 -22.189871 -0.1886784 3.3333333
2.2488747 -22.363649 -0.16579919 2.3333333
16.430408 -22.192051 -0.27923569 6
20.06918 -22.249643 -0.42319068 12.5
1.3714684 -21.645676 -0.27798089 17.5
1.7112806 -21.747601 -0.19485201 3.5
2.2080288 -21.701015 -0.27015874 23.799999
19.98543 -21.821146 -0.45922738 20
20.057705 -21.714434 -0.43295515 29.75
0.19838016 -21.112753 -0.23617978 76.800003
1.3614422 -21.437855 -0.17521831 16.4
1.7400361 -21.437067 -0.12741609 2
2.2751 -21.46047 -0.12160905 6.1666665
16.090939 -21.072617 -0.064749882 53.5
19.791182 -21.012232 -0.44796613 27
20.011385 -21.32453 -0.43678391 14
16.243441 -20.864864 -0.084053755 60.923077
16.754448 -20.821836 -0.1077022 61.294117
17.253391 -20.767748 -0.12984124 53.619049
17.733873 -20.718443 -0.17006816 57.684212
18.229834 -20.676178 -0.21823059 52.266666
18.761831 -20.630581 -0.25426912 48.285713
19.272989 -20.581568 -0.30277532 43.07143
19.712778 -20.646732 -0.40801135 20.1
20.025867 -20.756231 -0.49790585 7
19.86734 -20.360485 -0.37201098 30.6875
20.036619 -20.316765 -0.40877518 24.5
19.889412 -19.738483 -0.39044783 30.09091
20.02247 -19.970819 -0.48818704 20
19.825996 -19.273323 -0.41046861 26.23077
19.392067 -18.613623 -0.46399799 8.5
19.81394 -18.783789 -0.39989543 25.166666
15.831966 -18.249382 -0.053693905 60.375
16.250496 -18.15103 -0.080687091 41.307693
16.749447 -18.092846 -0.095979698 50.5
17.206848 -18.032913 -0.12333341 56.3125
17.601316 -18.020775 -0.21518993 20
19.293318 -18.195482 -0.44239202 18.666666
19.700064 -18.18779 -0.41607204 30.333334
17.364239 -17.979412 -0.10774301 66.14286
17.778723 -17.955526 -0.17114696 49
18.254725 -17.904209 -0.19511519 43.4375
18.732214 -17.842981 -0.23787901 27.333334
19.21726 -17.77977 -0.34274438 31.666666
19.628925 -17.68054 -0.33093518 51.53846
19.068949 -17.238449 -0.46929598 3.8571429
19.622559 -17.264486 -0.34626055 7.6428571
18.997137 -16.587873 -0.43531668 4
19.135418 -16.752476 -0.4487009 3.8888888
19.570324 -16.762323 -0.3380858 3.875
18.958681 -16.222702 -0.44517288 4.6666665
19.405195 -16.264023 -0.3872357 8.875
19.539352 -16.276438 -0.32805091 8.25
15.432424 -15.607162 -0.034431841 61.666668
15.665485 -15.557866 -0.055999782 58
16.109531 -15.56935 -0.11324957 4
16.584831 -15.519065 -0.1544107 2
18.881548 -15.741279 -0.44268224 7.1428571
19.392727 -15.748566 -0.37017304 7.5999999
15.924844 -15.489326 -0.060640786 67.333336
16.270369 -15.438175 -0.074282631 60.799999
16.760267 -15.356339 -0.09510459 59.049999
17.230043 -15.270997 -0.11995035 63.347828
17.736782 -15.197574 -0.16681686 53.434784
18.272036 -15.103922 -0.2015285 54.950001
18.760443 -15.137708 -0.33522841 33.565216
19.215149 -15.170854 -0.36930296 11.25
18.754629 -14.851169 -0.35789001 19.4
19.227318 -14.829284 -0.29270875 34.73077
18.620113 -14.266885 -0.44258425 4.9230771
19.214661 -14.268758 -0.30773845 39
18.466686 -13.666811 -0.46863183 4.8000002
18.574429 -13.806194 -0.42634937 6.7777777
19.163378 -13.754239 -0.3277823 19.214285
15.018488 -13.065306 -0.031223491 56
18.427502 -13.239412 -0.44434282 5.8888888
18.545759 -13.340206 -0.39428166 6.6666665
19.08889 -13.276533 -0.32523763 16.125
-8.6502314 -12.583545 -0.33651096 46.75
-8.1145725 -12.582194 -0.33650589 25.25
-7.9810352 -12.622407 -0.32907453 5.25
-7.1611753 -12.557631 -0.47607696 1
15.275906 -12.903164 -0.04722704 51.81818
15.77611 -12.792712 -0.064937837 57.533333
16.266748 -12.678073 -0.082016766 51.380951
16.740219 -12.574427 -0.10587151 53.279999
17.074963 -12.517668 -0.16155718 43.75
18.362871 -12.768143 -0.41354117 8.2941179
18.982267 -12.761842 -0.35488576 10
19.039528 -12.994016 -0.35764283 4
-10.821382 -12.199979 -0.36905593 34.18182
-9.038208 -12.130958 -0.30302036 1.2
-8.7230749 -12.254636 -0.27553231 39.258621
-8.2624016 -12.457907 -0.37859058 78.272728
-7.7179947 -12.376126 -0.39681527 50.888889
-7.2763677 -12.338569 -0.30574951 27.724138
-3.6388671 -12.187683 -0.46612558 34.666668
-3.4434688 -12.049471 -0.45321497 56.125
16.999294 -12.49723 -0.033096664 71
17.270056 -12.440619 -0.13037786 56.208332
17.760487 -12.335885 -0.17456712 52.666668
18.266186 -12.234264 -0.30622262 25.183674
18.714848 -12.116388 -0.26021069 43.692307
-9.1640854 -11.834686 -0.17688827 11.055555
-8.7843657 -11.76854 -0.13932699 57.128204
-8.1514721 -11.600451 -0.38645631 19.75
-7.7097301 -11.750945 -0.4119181 22.555555
-7.2500076 -11.7551 -0.46983579 25.807692
-3.1936932 -11.745947 -0.44221142 56.25
-2.7591856 -11.60998 -0.4498665 38.5
-2.4803083 -11.608148 -0.45282882 104
18.18038 -11.735418 -0.42999077 8.0500002
18.781672 -11.742486 -0.25931692 32.958332
-9.0958881 -11.303307 -0.33833715 56.384617
-8.803669 -11.239783 -0.37670538 62.140846
-8.2423573 -11.09369 -0.42701393 67.133331
-7.7735834 -11.127616 -0.44535699 67.653061
-7.3553061 -11.259238 -0.47297058 30.875
-3.2387609 -11.160366 -0.45662153 17.916666
-2.7424805 -11.229998 -0.43279055 3
-2.4953141 -11.197174 -0.4675827 59
17.994301 -11.017644 -0.437684 4
18.084814 -11.239775 -0.4221482 7.2105265
18.681536 -11.234397 -0.27735913 52.761906
-9.0877838 -10.966926 -0.40698352 40.333332
-8.9571972 -10.964417 -0.40454942 55
-8.1654091 -10.987133 -0.35533911 1.5
-3.6509273 -10.799894 -0.47212905 64.3125
-3.4640586 -10.931269 -0.47343701 44.599998
14.499028 -10.503437 -0.028077973 56
17.957212 -10.69021 -0.43074748 5.6153846
18.02948 -10.825746 -0.38915595 4.8571429
18.577274 -10.748277 -0.28624129 38.294117
14.452173 -10.354584 -0.027881622 59
14.770791 -10.22606 -0.042419299 59.636364
15.270279 -10.11425 -0.056699 59
15.597293 -10.023372 -0.055985052 64.5
17.878233 -10.24686 -0.41201502 6.4285712
18.465675 -10.24678 -0.29900011 26
18.548874 -10.387645 -0.27423429 30.5
15.837424 -9.9446983 -0.077090435 58.733334
16.24045 -9.8342075 -0.094711103 56.68
16.764824 -9.7134981 -0.13481072 53.150002
17.201931 -9.5721016 -0.15192157 58.277779
17.791246 -9.7284861 -0.39037395 11.75862
18.304192 -9.7550888 -0.32503685 11.2
0.75540119 -9.2171984 -0.24591868 76.526314
17.484367 -9.4879293 -0.20108816 53
17.759098 -9.3276129 -0.31509313 19.589743
18.173407 -9.2339754 -0.23774089 35
0.80706632 -8.8295898 -0.3030389 6.8888888
17.464581 -8.6401625 -0.41265985 5.875
17.579382 -8.7899313 -0.39508802 7.3684211
18.098629 -8.7575254 -0.25108644 40.875
13.839618 -8.1235065 -0.036386754 37.599998
17.386608 -8.2376051 -0.39903834 6.1785712
17.913708 -8.2353334 -0.27668831 46.222221
18.046032 -8.3984241 -0.21646199 36.400002
13.874627 -7.9426026 -0.037023123 54.142857
14.253569 -7.8029723 -0.042483911 60.133335
14.75028 -7.6362662 -0.059143525 54.809525
15.060922 -7.5257025 -0.059883118 56.714287
17.239775 -7.7507482 -0.39314005 5.1379309
17.821833 -7.7743115 -0.2696692 54.764706
13.441442 -7.1449804 -0.22401781 4.5714288
13.587957 -7.333662 -0.11700669 2
15.314159 -7.430861 -0.081970818 51.136364
15.743085 -7.2707834 -0.086660907 58.483871
16.210361 -7.0950522 -0.11861262 53.285713
16.766579 -7.0348206 -0.21863122 8
17.121035 -7.2611122 -0.38768902 9.3125
17.663145 -7.2443991 -0.31395403 32.46154
-9.5939817 -6.583456 -0.17901966 49.470589
-9.2778225 -6.6635609 -0.19074158 50.200001
-8.8064184 -6.7574296 -0.26064262 49.227272
-8.229229 -6.7680068 -0.38442484 23.6
-7.9255648 -6.7107186 -0.42041436 20.85
13.330015 -6.9543252 -0.3379178 3
16.432896 -6.9784164 -0.12636402 55.799999
16.809299 -6.8121629 -0.23534289 29.833334
17.260048 -6.6922708 -0.23271579 21.076923
17.543385 -6.9416604 -0.35839602 27.666666
-9.6096191 -6.3061152 -0.1425309 67.738464
-9.4133406 -6.0907302 -0.078205973 41.599998
-8.6754465 -6.0890989 -0.23335356 23.5
-8.2328348 -6.2473326 -0.26545912 32.03846
-7.8463383 -6.2023258 -0.38367525 26.404762
16.724707 -6.2520537 -0.40046132 8.9032259
17.316139 -6.2636914 -0.23266549 45
-11.836993 -5.5045967 -0.49811172 2
-10.236705 -5.5369635 -0.11752497 1
-9.5998707 -5.7154551 -0.10966776 69
-9.3523808 -5.8964558 -0.11468717 57.032257
-8.7295246 -5.7538199 -0.23715481 3.9310346
-8.1897173 -5.7298541 -0.2767179 20.762712
-7.842844 -5.7679186 -0.38059068 40.6422
12.957748 -5.6660347 -0.022169817 22.75
13.165039 -5.5321641 -0.030784374 40
16.458672 -5.6189494 -0.39098227 14.916667
16.568535 -5.8395882 -0.39349484 12.904762
17.157841 -5.745986 -0.26775938 31.897436
-11.833448 -5.452785 -0.49715638 6
-10.160425 -5.1835532 -0.21980999 59.743591
-9.7304029 -5.188036 -0.26578292 70.942146
-9.2457771 -5.1889482 -0.29888067 66.204971
-8.7460604 -5.2148347 -0.33814248 50.221478
-8.2576971 -5.2733345 -0.36787477 37.972973
-7.8826723 -5.3413744 -0.41122064 32.814816
13.270926 -5.4030399 -0.15917495 36.400002
13.791644 -5.2193675 -0.043468326 56.105263
14.155642 -5.0622854 -0.057853863 55.923077
16.325472 -5.2576036 -0.38558456 12.942857
16.885506 -5.1458797 -0.32312196 31.388889
17.0602 -5.3667283 -0.2698234 24.058823
14.359095 -4.950665 -0.06858398 57.076923
14.75416 -4.7924576 -0.082685389 56.972973
15.202476 -4.5929074 -0.089992397 62.5
15.905354 -4.5414 -0.34361729 12.8
16.125513 -4.7469749 -0.38911611 11.076923
16.802414 -4.8009996 -0.2853584 50.64706
15.442404 -4.4747262 -0.12608454 53.875
15.806285 -4.28511 -0.23850673 29.263737
16.204952 -4.1584687 -0.20703021 21.27907
16.59623 -4.3203321 -0.28589752 27.222221
15.497897 -3.5073023 -0.35716629 3
15.665245 -3.7392912 -0.38673085 9.9799995
16.273045 -3.7561843 -0.19139485 18.120689
11.724391 -3.0793502 -0.018996155 24
12.081353 -3.0018377 -0.041186206 1
15.385103 -3.2223454 -0.39312539 9.6904764
15.800595 -3.2069945 -0.27313623 22.821428
16.090105 -3.3311799 -0.20978171 22.529411
11.818343 -2.9278111 -0.019080456 58.400002
12.252499 -2.7366877 -0.037794221 47.869564
12.654475 -2.556704 -0.051402252 51.307693
13.060246 -2.5315816 -0.11352792 3
15.163481 -2.744395 -0.38458279 9.2115383
15.812234 -2.7692273 -0.23629163 34.292683
12.858424 -2.4286113 -0.058925658 61
13.251785 -2.2625115 -0.077884443 51.384617
13.669675 -2.0716672 -0.087794229 52.560001
14.923989 -2.2306395 -0.37445167 8.5365858
15.267609 -2.3355811 -0.32962781 10.8125
15.628849 -2.2801752 -0.30286473 34.033333
11.095111 -1.6859275 -0.39923066 5.3157897
13.894235 -1.9533823 -0.09954796 49.8125
14.24639 -1.7896869 -0.11138651 50.411766
14.686446 -1.6776141 -0.29574046 15.835294
15.303319 -1.7517103 -0.30061042 20.9
15.526683 -1.9308672 -0.27896664 37.666668
10.906654 -1.2662163 -0.18285544 10.111111
11.04101 -1.448034 -0.269503 4
14.415201 -1.1891189 -0.3887367 10.5
14.808262 -1.2577884 -0.21266027 16.491228
15.087392 -1.2556962 -0.20170748 30.523077
10.458079 -0.57046938 -0.020059925 63
10.519694 -0.54323459 -0.034835838 20
14.229671 -0.75511771 -0.39966628 18.066668
14.839181 -0.74818504 -0.19296689 34.091835
15.012358 -0.95958358 -0.24634507 37.25
0.019777499 -0.43572009 -0.098421514 0.91666669
10.440436 -0.41353416 -0.021591196 51.285713
10.7602 -0.27802059 -0.043457776 35.208332
11.182531 -0.1153588 -0.063548185 37.84
11.598041 -0.058958281 -0.11712006 9.666667
13.927586 -0.14937638 -0.41391602 20.6875
14.136377 -0.3370195 -0.40050223 8.3125
14.641938 -0.25784823 -0.24843219 19.772152
0.023811765 0.44608653 -0.10096521 0.5
11.406898 0.035291757 -0.06200226 54.777779
11.771781 0.16731657 -0.085264839 45.62162
12.243814 0.36675873 -0.098069713 48.918919
12.580289 0.40054184 -0.16089405 26.571428
13.765555 0.25763333 -0.41970426 11.246154
14.410342 0.2602033 -0.28547806 24.755102
14.529114 0.048592754 -0.28714451 25.555555
0.024701748 0.51420438 -0.11740141 1
12.790427 0.60413718 -0.11947636 45.195122
13.316127 0.85321271 -0.22287104 35.732395
13.63086 0.73831874 -0.36997375 14.253521
14.271348 0.66232431 -0.3176693 20.772728
13.323524 1.2465353 -0.4294239 18.850746
13.864778 1.2957014 -0.1808801 26.478992
14.049682 1.1617454 -0.33317634 21
-1.8547392 1.9796863 -0.10899729 4.3965516
12.978796 1.9935418 -0.45524564 44
13.120886 1.7519307 -0.41726163 14.884058
13.729406 1.7500215 -0.19094124 25.203703
-2.0711932 2.2577696 -0.37968248 83.969696
-1.7924372 2.1339614 -0.22702588 57.459679
9.339262 2.1882498 -0.015022697 64
9.6471262 2.328975 -0.11363282 9.173913
10.193816 2.4479809 -0.071164377 5.3333335
12.90038 2.2743263 -0.4182955 19.415384
13.404127 2.3131936 -0.13101591 39.209679
13.582785 2.2014847 -0.23182602 52.847618
9.8748856 2.549732 -0.039658967 34
10.259043 2.6673596 -0.061286569 17.083334
10.689381 2.7893884 -0.086655617 16.235294
11.249042 2.9379108 -0.1396727 4.3333335
12.729747 2.7468851 -0.40524781 19.530865
13.342195 2.7480164 -0.17677201 42.66013
13.518213 2.5128973 -0.33293688 53
10.90031 3.0116558 -0.037405826 20
11.250814 3.1053529 -0.092110515 19.90909
11.749758 3.2626541 -0.12631232 20
12.414244 3.4095829 -0.33030921 5.6538463
12.602903 3.2309892 -0.38111204 18.515152
13.194544 3.1998634 -0.23330414 32.866665
1.4720696 3.963274 -0.2549969 18.90909
1.5294471 3.9578106 -0.2038862 94.730766
12.354279 3.7464991 -0.3641538 5.6944447
12.862608 3.8458407 -0.22223565 27.943821
13.051405 3.6187358 -0.40125465 63.23077
1.4817406 4.0189052 -0.15408097 0.5
1.5609729 4.0162101 -0.081298336 36.400002
12.181451 4.2544065 -0.3593398 6.2278481
12.74299 4.2456832 -0.19744851 51.155689
-3.2007046 4.6117153 -0.38819847 8.1911764
-2.8278966 4.8267198 -0.33669657 17.547171
8.5620661 4.9341488 -0.015477572 53
11.947264 4.8648725 -0.34571716 4.9189191
12.196782 4.7373013 -0.25582454 23.094595
12.589449 4.7298994 -0.22518277 50.676922
-8.1264744 5.3451834 -0.2185913 39.513512
-7.7124119 5.3019643 -0.28187355 47.803921
-7.2523394 5.2836714 -0.31534609 43.51366
-6.7398329 5.2469163 -0.33401784 46.152172
-6.2725487 5.3039727 -0.37894717 51.545456
-5.9867163 5.4803329 -0.45074266 1
-2.5671611 5.1196675 -0.29347363 18.448277
-2.2724626 5.2023602 -0.24721912 6.1376147
-1.9473855 5.2649374 -0.30849919 10.73913
8.6929464 5.1258593 -0.11402071 29.4
9.2777205 5.2451324 -0.050048172 41.642857
9.7301722 5.3408532 -0.058098752 58.700001
10.1447 5.4571605 -0.055361826 52.714287
11.821423 5.2473483 -0.35359868 6.0259738
12.379161 5.2643704 -0.1892847 53.280823
12.519047 5.0611959 -0.32423908 51.545456
-8.2205257 5.7503672 -0.13023575 3.3225806
-7.7216358 5.7647071 -0.10664865 36.558823
-7.2328696 5.6875548 -0.11562803 20.13077
-6.7168736 5.7379923 -0.19955637 17.611111
-6.2466788 5.7640119 -0.27036032 57.19101
-5.9487891 5.7935948 -0.44599202 1.0384616
-2.5329936 5.8492279 -0.24669024 26.631578
-2.3007405 5.7637911 -0.24016602 12.095238
-1.9249612 5.6038151 -0.29558685 10.326923
9.8504 5.5440464 -0.096423909 11.5
10.269858 5.6187696 -0.10242108 36.599998
10.745742 5.7361164 -0.096781738 36.388889
11.263497 5.8761201 -0.28950289 35.586208
11.65751 5.7527971 -0.3282977 7.391892
12.208154 5.7382965 -0.21005879 52.614906
-8.3330021 6.0327253 -0.07857199 3.7
-7.6201053 6.3215561 -0.13023643 10.083333
-7.2913723 6.2144809 -0.11412356 23.978724
-6.7553773 6.3073602 -0.19175938 8.7333336
-6.1989703 6.1574965 -0.30656111 32.585365
-5.9625907 6.0442319 -0.43199888 0.83333331
-3.023988 6.4044132 -0.38613647 62.777779
-2.8719523 6.3326364 -0.33756354 10.285714
11.362213 6.2778845 -0.33658913 4.3088236
11.637789 6.1391339 -0.30570263 14.761905
12.080555 6.1600814 -0.26195985 42.382355
-7.5988216 6.5457807 -0.058997929 36
-7.3917341 6.5632849 -0.15311462 29.5
-3.6173599 6.7784514 -0.43671706 22.285715
-3.3440673 6.6286135 -0.3420234 0.78571427
11.258527 6.7631297 -0.33862302 2.5915494
11.860595 6.7676482 -0.28808564 24.523256
10.982818 7.4566169 -0.34783408 2.2857144
11.090232 7.2314076 -0.34266269 3.0563381
11.672515 7.2537608 -0.21287365 39.036766
7.7903342 7.8592196 -0.0472425 24.35
8.1756516 7.9078412 -0.026830357 30.545454
8.5489597 7.9676437 -0.018311549 28
10.893986 7.7578239 -0.34561038 2.3466666
11.432308 7.8458662 -0.15545201 38.657143
11.555709 7.6416645 -0.23490503 11.295774
7.8207726 8.0555649 -0.053446148 17.5
8.3675928 8.0885162 -0.053710662 22
8.759944 8.1315594 -0.058096822 31.222221
9.2596073 8.2688618 -0.074960068 36.575756
9.7598572 8.3926668 -0.079261333 33.689655
10.152228 8.4686251 -0.079920456 49.57143
10.727049 8.2505274 -0.35163778 2.7260275
11.323414 8.2480488 -0.19306478 42.067165
9.3001308 8.5353336 -0.12749587 17
9.8449917 8.5984392 -0.15707694 9.7142859
10.333759 8.7050371 -0.18325381 16.918919
10.634536 8.7170887 -0.28724694 7.7127662
11.164266 8.6965303 -0.21449678 27.037735
10.399887 9.2551088 -0.35802674 7.921875
10.878915 9.3134737 -0.31177351 14.909091
11.031671 9.201252 -0.42537004 12.090909
10.252954 9.7454977 -0.36195967 7.8307691
10.865535 9.7630653 -0.27735722 21
9.9889278 10.48752 -0.40122411 14
10.122269 10.258782 -0.35943317 6.4166665
10.689771 10.249028 -0.24346235 29.545454
7.4080744 10.772149 -0.02049103 17.200001
7.7804227 10.790044 -0.029849591 50.307693
8.2218161 10.880075 -0.034184035 60.615383
8.6006145 10.958578 -0.026676986 63
9.9311686 10.761972 -0.35091507 6.5818181
10.339277 10.789346 -0.17788933 17.96875
10.557035 10.706534 -0.26286656 25.4
7.7311668 11.01963 -0.044543773 5.5
8.3569536 11.039577 -0.069936357 27.666666
8.7922926 11.06802 -0.067103684 35.869564
9.2423544 11.209653 -0.090742819 37.555557
9.7718248 11.290408 -0.26071027 15.393617
10.349921 11.275129 -0.185394 9.7570095
9.6446457 11.739261 -0.34716684 4.3333335
10.244585 11.695612 -0.26431695 31.264706
9.4550667 12.345208 -0.34716845 7.521739
9.5619297 12.137037 -0.36874017 8.5789471
10.122978 12.263811 -0.30475849 17.642857
9.3453951 12.743441 -0.34136799 4.7142859
9.9097042 12.806214 -0.24317108 15.488889
10.037649 12.620804 -0.32381827 30.23077
9.2158384 13.245998 -0.33967897 5.7948718
9.8165407 13.264289 -0.24057642 15.147541
6.8622332 13.573881 -0.023846641 2.25
7.2747116 13.661839 -0.035913903 8.1428576
7.7742653 13.76281 -0.043799438 31.4375
8.2680845 13.897924 -0.064665377 22.73913
8.7117214 13.958082 -0.096316874 13.6
9.1092224 13.735893 -0.32019547 5.3249998
9.658268 13.74999 -0.23551226 25.075758
8.2564383 14.017724 -0.11054132 2
8.9102097 14.192025 -0.25028959 8.4651165
9.2499723 14.160853 -0.17175286 9
9.5465174 14.148232 -0.28278229 21.642857
5.3492141 14.776991 -0.25079644 4.25
6.8964391 14.507971 -0.081160083 9
8.8491583 14.759449 -0.30456045 3.3548386
9.339819 14.774251 -0.32883602 12.2
9.5029478 14.518733 -0.4808585 2
5.2971873 15.192202 -0.19246131 1.5
8.7429123 15.248761 -0.30322632 3
9.3070116 15.265075 -0.34106365 24.59375
5.1908493 15.808777 -0.15608414 2.5
8.6470385 15.752372 -0.28098395 3.074074
9.2056513 15.760539 -0.29333264 26.75
5.2173352 16.302921 -0.19611295 5
8.553256 16.229124 -0.27537701 2.1428571
9.1033592 16.243355 -0.29275528 31.205128
4.9887972 16.980505 -0.151114 8
5.047586 16.71521 -0.14152366 3
6.9429893 16.662573 -0.028309666 6
7.2712736 16.68256 -0.032549057 52.375
7.7543497 16.794559 -0.046428245 42.307693
8.3677769 16.845781 -0.18680394 20.634146
8.8249731 16.876955 -0.2088571 22.133333
9.0360575 16.67676 -0.317949 36
4.9267268 17.287378 -0.13739856 2.3333333
8.3309202 17.254133 -0.25638601 4.2916665
8.8604221 17.227497 -0.30377918 36.242424
4.8436475 17.708168 -0.060679689 3.6666667
8.2556353 17.789074 -0.25206828 2.5625
8.778183 17.752661 -0.34731483 18.578947
4.8776793 18.05135 -0.029326756 6
8.190465 18.244184 -0.26687294 2.6666667
8.705842 18.246155 -0.31989008 6.9285712
8.0920153 18.7498 -0.23842837 2.9545455
8.6112938 18.738972 -0.31478781 5.1071429
4.7529097 19.29954 -0.048498705 3
5.161685 19.145447 -0.2731806 13
7.1304855 19.461866 -0.032512855 30
7.9076891 19.272635 -0.24785623 4.6500001
8.2745247 19.24354 -0.18938002 9.6999998
8.5505743 19.229111 -0.32668844 8.1428576
7.8526883 19.595589 -0.17693239 17.583334
8.3166733 19.751007 -0.24031885 5.5428572
8.5123549 19.612738 -0.46839878 5.3333335
8.3114805 20.250042 -0.38243657 4.875
7.5894132 20.850477 -0.24974979 3.7142856
8.227953 20.60393 -0.3109839 7
7.4852629 21.361923 -0.20116949 1
7.550684 21.195265 -0.22778691 5.4166665
4.2470059 21.747337 -0.14009243 8.5
7.4189749 21.731211 -0.21059202 5.4615383
7.9002695 21.833086 -0.26405361 10.625
8.0318251 21.716745 -0.33262348 1.6666666
6.7893267 22.313416 -0.036591686 17.200001
7.2741251 22.316246 -0.2037154 19.950001
7.8682728 22.266258 -0.26910082 18.818182
7.2047954 22.682333 -0.18658116 9.2307692
7.7515531 22.671036 -0.28674188 45.909092
6.9404721 23.377512 -0.22747232 8.666667
7.1309566 23.207222 -0.24793647 16.333334
7.6188087 23.162397 -0.38893017 11.916667
6.8399758 23.719437 -0.25885522 13
7.4201989 23.772314 -0.32843441 8.1999998
7.5308867 23.569012 -0.40549713 5
3.3111358 24.330881 -0.29084709 5.4000001
6.6719942 24.235319 -0.25341919 11.363636
7.2857237 24.258682 -0.30886427 14.666667
6.4642692 24.845579 -0.23283029 20.666666
6.6583114 24.753885 -0.21246532 21.875
7.1163325 24.736731 -0.27114198 22.227272
6.3589849 25.193851 -0.20941299 19.736841
6.8205714 25.268341 -0.22889863 8.6111107
7.0542288 25.140484 -0.41428891 13
6.1425219 25.726179 -0.24779181 17.625
6.7428203 25.746399 -0.3413206 7.909091
5.920711 26.282377 -0.2389763 27.555555
6.2757192 26.28422 -0.23059246 32.799999
6.5937252 26.200472 -0.32018551 18.333334
5.6996784 26.747984 -0.22802179 34.166668
6.342195 26.78396 -0.26815134 27.526316
6.5362272 26.583672 -0.42482221 7
5.4337392 27.299692 -0.19550619 14.428572
5.6688929 27.176828 -0.21579115 24.857143
6.1737132 27.262978 -0.26327166 28.277779
5.2809186 27.739895 -0.15616229 26.214285
5.8745446 27.768738 -0.23378839 21.058823
6.0526848 27.586073 -0.31545058 24
-78.212013 28.314896 -0.32407153 39.333332
-77.953835 28.097136 -0.41926381 27
5.0965762 28.209249 -0.19495122 7
5.7516031 28.183876 -0.37322286 22
-77.920258 28.557858 -0.1303132 65
4.8747802 28.725121 -0.19820231 5.3333335
5.355597 28.785084 -0.24952938 24.5
5.6083031 28.634279 -0.41048694 14
-78.243988 29.008602 -0.2766307 1
4.6370373 29.244459 -0.17556161 5.5833335
5.2787242 29.21921 -0.26912335 22.125
4.3828211 29.726377 -0.14544839 2.75
4.8697648 29.756834 -0.18695641 10.666667
5.1168475 29.704927 -0.35057828 12.142858
4.2183213 30.253784 -0.1588359 10.583333
4.7715912 30.295361 -0.31142983 10.85
3.8826187 30.79014 -0.15022314 2.875
4.3281822 30.765188 -0.30360055 3.75
4.5772581 30.675678 -0.41377121 4.875
3.6554363 31.306349 -0.18687867 6.8333335
4.2976851 31.239996 -0.36148536 6.3000002
3.4297397 31.776215 -0.18949662 9.25
3.873522 31.789745 -0.23809414 7.875
4.1011324 31.646145 -0.37098682 7.7777777
3.2362409 32.256161 -0.18008253 6.7142859
3.7821081 32.260887 -0.28015259 7.4000001
2.8880408 32.806683 -0.17689663 12.636364
3.2631788 32.856293 -0.15404667 18
3.5784941 32.722511 -0.30556786 14.333333
2.7005684 33.250153 -0.1852888 5.7142859
3.2878549 33.187531 -0.32956186 22.071428
2.4142528 33.793266 -0.15950648 3
2.7794223 33.774445 -0.3126924 7.8000002
3.1071501 33.653046 -0.41998342 12
2.2000854 34.219765 -0.1733942 3.5714285
2.7680941 34.278736 -0.31737861 18.333334
1.8752083 34.739811 -0.18460529 3.7142856
2.2550759 34.731998 -0.18964568 7.25
2.5798914 34.74567 -0.3056066 22.714285
1.448261 35.368931 -0.11729115 1
1.6371607 35.242783 -0.16302124 11.5
2.3052788 35.247524 -0.34445015 13.142858
1.3277456 35.710434 -0.16003621 3
1.8674576 35.849308 -0.29721594 12.428572
2.0763445 35.647152 -0.35628569 6.1666665
0.95159107 36.360619 -0.24739064 4
1.1728548 36.202423 -0.18331067 4
1.7497506 36.224571 -0.33182409 10.75
0.8235957 36.720486 -0.16741477 3.8571429
1.3645498 36.76833 -0.29701301 12.625
1.5375937 36.581253 -0.37466407 5.3333335
0.41508135 37.347836 -0.14548935 2.6666667
0.71499348 37.292843 -0.12341392 11.333333
1.1857948 37.279457 -0.28843799 16.444445
0.21959159 37.764008 -0.18162785 13.714286
0.81429732 37.782963 -0.29218164 9.666667
1.0356059 37.628201 -0.32168382 8
-0.17725988 38.331966 -0.15374489 3.4000001
0.37534493 38.160858 -0.20840077 6.25
0.6441763 38.187988 -0.34368056 9.7142859
-0.55478954 38.90451 -0.16279854 2.5
-0.4167693 38.701221 -0.16193548 3.5
0.25929084 38.789936 -0.3382737 14
0.52218044 38.523884 -0.32925236 8
-1.0026594 39.455811 -0.13078775 1
-0.80227196 39.292145 -0.17131533 4
-0.087773241 39.323566 -0.32548252 20
0.093188494 39.087139 -0.31543282 15.5
-1.2393767 39.763008 -0.15960392 2
-0.62880611 39.993042 -0.27206504 14
-0.34139654 39.752071 -0.29763415 14.166667
-1.6169239 40.314327 -0.15716906 2
-1.23225 40.188072 -0.15054196 21.5
-0.72749227 40.259857 -0.29172343 10.181818
-0.43564484 40.044994 -0.34225142 14
-2.0401964 40.897686 -0.13569561 3
-1.8022432 40.665096 -0.18222451 3.3333333
-1.0935963 40.766426 -0.38311616 16.5
-0.89273626 40.596863 -0.41541764 11
-2.213872 41.264038 -0.18506908 4.3333335
-1.6756958 41.303299 -0.29764798 5.25
-1.340946 41.208981 -0.33262086 14.875
-2.5877972 41.835686 -0.24852242 26.5
-2.2844458 41.827168 -0.26067856 7
-1.7927206 41.790855 -0.25861245 12.444445
-1.4664192 41.511414 -0.35499388 6
-2.8205082 42.286846 -0.22477515 14.571428
-2.2439487 42.278889 -0.24480195 20
-1.9648453 42.133671 -0.3935681 6
-3.2157607 42.774395 -0.23830661 10.857142
-2.6948552 42.792336 -0.22681494 22.571428
-2.4078085 42.628082 -0.32395536 13.25
-3.701622 43.245819 -0.26494694 4.1999998
-3.1636147 43.443527 -0.10635934 20.5
-2.883456 43.193974 -0.41533795 30
-4.1424975 43.665375 -0.24733794 4
-3.7541118 43.794144 -0.29932946 7
-3.3261991 43.721687 -0.29546854 13.375
-5.0624528 44.161377 -0.26360458 6.5
-4.8059301 44.284061 -0.24482124 7.75
-4.2718782 44.234665 -0.18585731 4
-3.7328885 44.250629 -0.23262699 16.5
-8.9241734 44.767887 -0.071659699 6
-5.1947155 44.728531 -0.30354908 4.6666665
-4.6897774 44.60363 -0.18769681 12.25
-4.2921562 44.822769 -0.23491374 7.8000002
-3.9594119 44.617126 -0.30230024 5
-5.5588713 45.41436 -0.23143402 2
-5.148138 45.493149 -0.15172905 1
-4.6485243 45.15675 -0.30589622 3.2
-4.3978376 45.095383 -0.42279798 3.5
-5.8420873 45.739151 -0.2332435 2.5
-5.1847768 45.875107 -0.35017359 6.25
-4.8970447 45.663372 -0.41649225 3.6666667
-6.1640658 46.33004 -0.23641954 2
-5.6261339 46.418926 -0.30026132 4
